-6.520532 17.484089 -24.576794 0.000000 0.000000 0.000000 
-1.321585 16.961136 -22.432098 0.000000 0.000000 0.000000 
-4.126914 7.396154 -32.994911 0.000000 0.000000 0.000000 
-0.679574 7.639047 -32.721817 0.000000 0.000000 0.000000 
2.184836 7.932644 -32.659092 0.000000 0.000000 0.000000 
-2.670356 8.771959 -32.170967 0.000000 0.000000 0.000000 
-4.126914 8.878601 -32.261124 0.000000 0.000000 0.000000 
-9.617156 -1.298702 -18.142706 0.000000 0.000000 0.000000 
-9.953145 0.101581 -19.621033 0.000000 0.000000 0.000000 
-10.373412 12.218948 -11.708617 0.000000 0.000000 0.000000 
-11.263511 15.559128 -12.986546 0.000000 0.000000 0.000000 
-11.563966 17.539150 -13.211369 0.000000 0.000000 0.000000 
-10.205811 12.094093 -15.751678 0.000000 0.000000 0.000000 
-10.285548 13.046803 -13.853313 0.000000 0.000000 0.000000 
-10.924183 14.751583 -10.780862 0.000000 0.000000 0.000000 
-10.958677 15.519924 -8.849022 0.000000 0.000000 0.000000 
-11.100705 16.549137 -10.798959 0.000000 0.000000 0.000000 
-10.508969 19.024162 -12.483588 0.000000 0.000000 0.000000 
-11.855691 21.004185 -15.230583 0.000000 0.000000 0.000000 
-9.953145 20.988251 -14.733602 0.000000 0.000000 0.000000 
-8.304157 21.499187 -15.034662 0.000000 0.000000 0.000000 
-7.040029 21.462093 -13.654078 0.000000 0.000000 0.000000 
-5.922029 20.892929 -14.568213 0.000000 0.000000 0.000000 
-3.503778 19.554047 -12.423515 0.000000 0.000000 0.000000 
-7.332153 20.509178 -11.871516 0.000000 0.000000 0.000000 
-7.234214 20.509178 -10.076568 0.000000 0.000000 0.000000 
-8.496587 18.820030 -9.220347 0.000000 0.000000 0.000000 
-7.807790 20.014175 -7.840817 0.000000 0.000000 0.000000 
-9.467626 19.253658 -6.943943 0.000000 0.000000 0.000000 
-8.066406 20.014175 -6.176051 0.000000 0.000000 0.000000 
-10.438663 18.117260 -9.680322 0.000000 0.000000 0.000000 
-2.184836 18.838173 -16.557739 0.000000 0.000000 0.000000 
1.699317 15.846714 -25.565601 0.000000 0.000000 0.000000 
-4.126914 12.341667 -30.230581 0.000000 0.000000 0.000000 
-2.094328 11.599088 -30.534605 0.000000 0.000000 0.000000 
1.699317 11.680820 -30.542618 0.000000 0.000000 0.000000 
2.676400 12.884731 -29.581085 0.000000 0.000000 0.000000 
1.699317 12.905888 -29.501066 0.000000 0.000000 0.000000 
-0.266628 12.622173 -29.581085 0.000000 0.000000 0.000000 
-2.184836 13.666229 -28.527748 0.000000 0.000000 0.000000 
-3.813715 11.104084 -30.838316 0.000000 0.000000 0.000000 
-0.724647 10.114071 -31.567741 0.000000 0.000000 0.000000 
-9.238129 7.639047 -33.725807 0.000000 0.000000 0.000000 
-6.517489 9.124062 -32.308228 0.000000 0.000000 0.000000 
-9.740489 10.114071 -32.859528 0.000000 0.000000 0.000000 
-7.525548 13.463203 -30.039644 0.000000 0.000000 0.000000 
-5.651285 11.104084 -30.932461 0.000000 0.000000 0.000000 
-8.011067 11.649223 -31.567972 0.000000 0.000000 0.000000 
-9.788622 14.569118 -30.324192 0.000000 0.000000 0.000000 
-11.895222 13.013348 -30.360153 0.000000 0.000000 0.000000 
-10.924183 12.368370 -31.809336 0.000000 0.000000 0.000000 
-12.513607 9.523784 -30.295984 0.000000 0.000000 0.000000 
-12.496148 10.609077 -29.136372 0.000000 0.000000 0.000000 
-11.895222 11.415653 -31.351103 0.000000 0.000000 0.000000 
-12.568889 8.837221 -28.151287 0.000000 0.000000 0.000000 
-12.448087 10.208179 -27.436388 0.000000 0.000000 0.000000 
-12.356067 15.119881 -26.006590 0.000000 0.000000 0.000000 
-12.430753 12.589096 -25.957449 0.000000 0.000000 0.000000 
-12.210961 14.117813 -27.436388 0.000000 0.000000 0.000000 
-12.445660 12.297170 -28.151287 0.000000 0.000000 0.000000 
-11.615005 15.559128 -28.425543 0.000000 0.000000 0.000000 
-9.953145 16.482903 -27.725285 0.000000 0.000000 0.000000 
-8.496587 16.115929 -28.217249 0.000000 0.000000 0.000000 
-8.011067 18.494617 -24.359905 0.000000 0.000000 0.000000 
-6.493842 19.024162 -21.599569 0.000000 0.000000 0.000000 
-3.543063 18.529160 -20.283913 0.000000 0.000000 0.000000 
-5.437531 20.222816 -17.427807 0.000000 0.000000 0.000000 
-0.482095 18.594501 -14.568213 0.000000 0.000000 0.000000 
6.554510 19.077477 -17.645544 0.000000 0.000000 0.000000 
7.040030 18.459713 -21.074339 0.000000 0.000000 0.000000 
2.016734 16.925999 -21.002300 0.000000 0.000000 0.000000 
4.935941 17.277241 -22.432098 0.000000 0.000000 0.000000 
-0.728279 17.566910 -20.036135 0.000000 0.000000 0.000000 
-4.115011 20.014175 -15.053258 0.000000 0.000000 0.000000 
-7.040029 21.005207 -16.103422 0.000000 0.000000 0.000000 
-9.467626 21.633347 -16.569439 0.000000 0.000000 0.000000 
-10.912767 21.499187 -17.093536 0.000000 0.000000 0.000000 
-9.190940 21.499187 -17.990644 0.000000 0.000000 0.000000 
-11.475372 21.004185 -17.860508 0.000000 0.000000 0.000000 
-12.031518 20.586742 -16.712908 0.000000 0.000000 0.000000 
-10.924183 21.282887 -18.888708 0.000000 0.000000 0.000000 
-7.758999 19.636967 -21.717199 0.000000 0.000000 0.000000 
-7.379846 20.509178 -19.287073 0.000000 0.000000 0.000000 
-9.953145 21.367104 -19.745550 0.000000 0.000000 0.000000 
-10.965842 19.229416 -23.861895 0.000000 0.000000 0.000000 
-9.309793 19.519169 -23.374811 0.000000 0.000000 0.000000 
-10.548602 20.254768 -22.432098 0.000000 0.000000 0.000000 
-10.924183 20.918533 -20.492201 0.000000 0.000000 0.000000 
-11.923894 19.769695 -20.287403 0.000000 0.000000 0.000000 
-11.730612 20.509178 -19.641031 0.000000 0.000000 0.000000 
-9.116045 20.509178 -21.393057 0.000000 0.000000 0.000000 
-11.895222 19.005165 -22.225126 0.000000 0.000000 0.000000 
-10.424787 10.978489 -18.142706 0.000000 0.000000 0.000000 
-10.438663 8.987705 -17.918724 0.000000 0.000000 0.000000 
-10.075596 7.178612 -19.572502 0.000000 0.000000 0.000000 
-10.083178 2.688997 -19.057846 0.000000 0.000000 0.000000 
-10.355030 2.023016 -21.717199 0.000000 0.000000 0.000000 
-10.689102 -0.281035 -23.627741 0.000000 0.000000 0.000000 
-11.252954 -3.162426 -24.576794 0.000000 0.000000 0.000000 
-12.134757 -2.261053 -28.002548 0.000000 0.000000 0.000000 
-11.580860 1.698986 -26.040718 0.000000 0.000000 0.000000 
-12.626376 2.440918 -28.866186 0.000000 0.000000 0.000000 
-12.674899 0.708977 -29.231169 0.000000 0.000000 0.000000 
-13.232621 -1.889986 -31.725782 0.000000 0.000000 0.000000 
-13.194750 2.201618 -31.010883 0.000000 0.000000 0.000000 
-12.929132 3.679006 -30.065308 0.000000 0.000000 0.000000 
-12.760828 1.460659 -31.725782 0.000000 0.000000 0.000000 
-12.925084 3.184002 -32.058388 0.000000 0.000000 0.000000 
-12.886600 4.669018 -31.473219 0.000000 0.000000 0.000000 
-10.691501 8.134052 -32.593777 0.000000 0.000000 0.000000 
-11.243738 10.114071 -31.938368 0.000000 0.000000 0.000000 
-12.380741 7.683279 -31.110987 0.000000 0.000000 0.000000 
-11.895222 8.922043 -31.521339 0.000000 0.000000 0.000000 
-12.756365 6.488317 -31.010883 0.000000 0.000000 0.000000 
-12.866261 7.231932 -28.899857 0.000000 0.000000 0.000000 
-11.243118 -5.726090 -24.563776 0.000000 0.000000 0.000000 
-12.690062 -10.574453 -26.721489 0.000000 0.000000 0.000000 
-11.409702 -7.582420 -24.944418 0.000000 0.000000 0.000000 
-12.380741 -3.947157 -27.981552 0.000000 0.000000 0.000000 
-11.842078 4.174011 -33.244324 0.000000 0.000000 0.000000 
-10.505608 6.649036 -33.108017 0.000000 0.000000 0.000000 
-8.523701 5.659027 -34.168446 0.000000 0.000000 0.000000 
-9.953145 3.833530 -34.443329 0.000000 0.000000 0.000000 
-4.612433 5.938637 -33.634827 0.000000 0.000000 0.000000 
-6.068991 6.542238 -33.629665 0.000000 0.000000 0.000000 
-11.849920 6.154032 -32.406738 0.000000 0.000000 0.000000 
-9.953145 1.829965 -34.489353 0.000000 0.000000 0.000000 
-5.579406 -1.766049 -34.911385 0.000000 0.000000 0.000000 
-5.598415 -5.726090 -34.422985 0.000000 0.000000 0.000000 
-6.554510 -4.422220 -34.876369 0.000000 0.000000 0.000000 
-7.738649 2.688997 -35.017170 0.000000 0.000000 0.000000 
-5.097952 2.488834 -34.574493 0.000000 0.000000 0.000000 
-5.583471 -3.490660 -34.776447 0.000000 0.000000 0.000000 
-3.641395 -3.640808 -34.330528 0.000000 0.000000 0.000000 
-0.199987 -2.756060 -34.068756 0.000000 0.000000 0.000000 
1.972593 0.213972 -33.971230 0.000000 0.000000 0.000000 
7.212202 -0.281035 -33.853973 0.000000 0.000000 0.000000 
5.399381 0.708977 -33.716293 0.000000 0.000000 0.000000 
0.242760 2.584942 -33.852741 0.000000 0.000000 0.000000 
0.728279 3.554825 -33.791096 0.000000 0.000000 0.000000 
-3.155875 2.341242 -34.233219 0.000000 0.000000 0.000000 
-1.699317 2.231064 -33.998390 0.000000 0.000000 0.000000 
-0.869881 4.174011 -33.800316 0.000000 0.000000 0.000000 
-3.155875 3.838901 -33.915237 0.000000 0.000000 0.000000 
-2.677869 5.659027 -33.441662 0.000000 0.000000 0.000000 
1.089197 6.410116 -33.155579 0.000000 0.000000 0.000000 
-0.242760 5.620050 -33.419197 0.000000 0.000000 0.000000 
1.213799 5.017465 -33.464764 0.000000 0.000000 0.000000 
-6.987893 4.631874 -34.585377 0.000000 0.000000 0.000000 
-8.412072 4.233288 -34.585377 0.000000 0.000000 0.000000 
-5.097952 3.988487 -34.338120 0.000000 0.000000 0.000000 
-3.812095 -0.281035 -34.533413 0.000000 0.000000 0.000000 
0.242760 -4.438622 -33.614048 0.000000 0.000000 0.000000 
-1.543323 -4.301748 -33.870476 0.000000 0.000000 0.000000 
-7.191997 -5.726090 -34.581959 0.000000 0.000000 0.000000 
-9.552685 -5.726090 -34.171021 0.000000 0.000000 0.000000 
-6.068991 -6.987702 -34.096210 0.000000 0.000000 0.000000 
-6.572991 -8.696118 -33.665501 0.000000 0.000000 0.000000 
-8.224548 -12.161155 -32.737080 0.000000 0.000000 0.000000 
-4.230107 -13.206517 -31.010883 0.000000 0.000000 0.000000 
-7.525548 -6.879073 -34.267689 0.000000 0.000000 0.000000 
-10.438663 -7.178009 -33.657200 0.000000 0.000000 0.000000 
-12.380741 -5.056235 -32.748981 0.000000 0.000000 0.000000 
-8.496587 -5.289063 -34.671753 0.000000 0.000000 0.000000 
-9.953145 -4.197293 -34.108711 0.000000 0.000000 0.000000 
-11.207428 -5.231085 -33.679749 0.000000 0.000000 0.000000 
-12.740666 -3.746069 -32.149124 0.000000 0.000000 0.000000 
-12.380741 2.469324 -32.733932 0.000000 0.000000 0.000000 
-12.275806 -1.271044 -33.104027 0.000000 0.000000 0.000000 
-11.865103 -3.251064 -33.601871 0.000000 0.000000 0.000000 
-9.019762 -3.251064 -34.445808 0.000000 0.000000 0.000000 
-8.269825 -1.802363 -34.585377 0.000000 0.000000 0.000000 
-10.924183 -1.623921 -34.099148 0.000000 0.000000 0.000000 
-7.525548 0.173725 -35.284306 0.000000 0.000000 0.000000 
-9.467626 -0.204951 -34.625710 0.000000 0.000000 0.000000 
-11.515556 0.925810 -33.870476 0.000000 0.000000 0.000000 
-13.399291 -3.746069 -30.383913 0.000000 0.000000 0.000000 
-13.191590 -5.231085 -29.364901 0.000000 0.000000 0.000000 
-13.422317 -7.211105 -29.948177 0.000000 0.000000 0.000000 
-13.435702 -5.231085 -30.964230 0.000000 0.000000 0.000000 
-12.333291 -6.575173 -32.440681 0.000000 0.000000 0.000000 
-12.934510 -6.716100 -31.222017 0.000000 0.000000 0.000000 
-13.109610 -7.706110 -31.342018 0.000000 0.000000 0.000000 
-13.278139 -8.696118 -29.933220 0.000000 0.000000 0.000000 
-12.497923 -11.920479 -31.010883 0.000000 0.000000 0.000000 
-8.982106 -7.772679 -34.134926 0.000000 0.000000 0.000000 
-9.450554 -8.696118 -33.607594 0.000000 0.000000 0.000000 
-8.011067 -9.359662 -33.695148 0.000000 0.000000 0.000000 
-10.674075 -9.179364 -33.155579 0.000000 0.000000 0.000000 
-9.467626 -11.784166 -32.743206 0.000000 0.000000 0.000000 
-10.489680 -13.151165 -31.836239 0.000000 0.000000 0.000000 
-10.438663 -14.772593 -30.795317 0.000000 0.000000 0.000000 
-10.924183 -11.689424 -32.329563 0.000000 0.000000 0.000000 
-12.127408 -9.609389 -31.725782 0.000000 0.000000 0.000000 
-0.242760 -6.424726 -33.107864 0.000000 0.000000 0.000000 
-3.158373 -7.211105 -33.494537 0.000000 0.000000 0.000000 
1.927799 -6.221094 -32.852047 0.000000 0.000000 0.000000 
6.554510 -5.911343 -33.041836 0.000000 0.000000 0.000000 
3.578569 -6.716100 -32.448223 0.000000 0.000000 0.000000 
-0.728279 -9.925299 -32.006020 0.000000 0.000000 0.000000 
4.612433 -9.823860 -31.308678 0.000000 0.000000 0.000000 
2.184836 -10.658978 -30.977594 0.000000 0.000000 0.000000 
2.447306 -13.151165 -29.805256 0.000000 0.000000 0.000000 
5.583471 -14.461002 -28.902067 0.000000 0.000000 0.000000 
3.880406 -13.646171 -29.297747 0.000000 0.000000 0.000000 
6.068991 -14.078582 -29.925034 0.000000 0.000000 0.000000 
10.924183 -13.620246 -30.852245 0.000000 0.000000 0.000000 
7.935410 -12.656160 -30.352461 0.000000 0.000000 0.000000 
11.763336 -12.656160 -30.545454 0.000000 0.000000 0.000000 
13.837299 -12.574961 -28.921032 0.000000 0.000000 0.000000 
12.408241 -14.141175 -29.927347 0.000000 0.000000 0.000000 
10.255035 -15.131186 -29.921009 0.000000 0.000000 0.000000 
7.750527 -15.579293 -28.866186 0.000000 0.000000 0.000000 
9.100267 -16.994137 -28.151287 0.000000 0.000000 0.000000 
10.924183 -16.415834 -28.394104 0.000000 0.000000 0.000000 
7.040030 -18.043537 -25.387157 0.000000 0.000000 0.000000 
9.218397 -19.457628 -24.576794 0.000000 0.000000 0.000000 
7.040030 -18.801264 -23.381590 0.000000 0.000000 0.000000 
8.517653 -20.576241 -20.374495 0.000000 0.000000 0.000000 
13.598103 -17.762991 -23.861895 0.000000 0.000000 0.000000 
12.978201 -20.190527 -21.717199 0.000000 0.000000 0.000000 
10.398552 -20.576241 -22.866682 0.000000 0.000000 0.000000 
13.351780 -18.121061 -25.342247 0.000000 0.000000 0.000000 
13.167637 -19.091227 -23.706518 0.000000 0.000000 0.000000 
11.919127 -19.091227 -25.376980 0.000000 0.000000 0.000000 
3.998991 -17.669300 -24.576794 0.000000 0.000000 0.000000 
0.808131 -16.121195 -27.141037 0.000000 0.000000 0.000000 
-3.641395 -17.203085 -26.411589 0.000000 0.000000 0.000000 
-5.366640 -17.743668 -26.721489 0.000000 0.000000 0.000000 
-6.554510 -18.146019 -27.096472 0.000000 0.000000 0.000000 
-8.982106 -17.929989 -28.813610 0.000000 0.000000 0.000000 
-3.641395 -16.334360 -27.848774 0.000000 0.000000 0.000000 
2.169678 -16.679039 -26.006590 0.000000 0.000000 0.000000 
7.525549 -14.086172 -29.403341 0.000000 0.000000 0.000000 
12.924906 -12.446782 -30.295984 0.000000 0.000000 0.000000 
13.515034 -11.171145 -29.140745 0.000000 0.000000 0.000000 
12.380741 -17.510073 -26.852526 0.000000 0.000000 0.000000 
13.587774 -15.626190 -24.120613 0.000000 0.000000 0.000000 
13.431654 -17.111206 -25.743353 0.000000 0.000000 0.000000 
12.380741 -15.968421 -28.230635 0.000000 0.000000 0.000000 
13.521708 -13.646171 -24.725868 0.000000 0.000000 0.000000 
13.650017 -16.616199 -23.315586 0.000000 0.000000 0.000000 
13.765898 -17.606211 -21.311440 0.000000 0.000000 0.000000 
13.599270 -15.131186 -21.719984 0.000000 0.000000 0.000000 
13.517916 -18.596220 -19.109701 0.000000 0.000000 0.000000 
11.527649 -21.566252 -20.856573 0.000000 0.000000 0.000000 
4.175252 -19.983707 -15.998010 0.000000 0.000000 0.000000 
4.531559 -20.081236 -13.373794 0.000000 0.000000 0.000000 
0.513907 -20.224506 -13.138414 0.000000 0.000000 0.000000 
7.525549 -20.111153 -9.870548 0.000000 0.000000 0.000000 
14.527227 -18.257189 -13.138414 0.000000 0.000000 0.000000 
12.885286 -13.646171 -18.726694 0.000000 0.000000 0.000000 
12.960100 -11.171145 -20.340921 0.000000 0.000000 0.000000 
14.097262 -7.211105 -10.159648 0.000000 0.000000 0.000000 
15.293856 -4.753683 -8.292128 0.000000 0.000000 0.000000 
14.705683 -1.766049 -9.171821 0.000000 0.000000 0.000000 
13.532793 -9.191125 -11.746600 0.000000 0.000000 0.000000 
15.511084 -13.646171 -7.325831 0.000000 0.000000 0.000000 
14.333382 -13.104426 -10.278820 0.000000 0.000000 0.000000 
14.322819 -10.143277 -9.343655 0.000000 0.000000 0.000000 
15.093342 -8.468390 -8.134124 0.000000 0.000000 0.000000 
16.264894 -6.854442 -6.756544 0.000000 0.000000 0.000000 
16.806276 -6.716100 -3.556310 0.000000 0.000000 0.000000 
15.496155 -10.676140 -2.284134 0.000000 0.000000 0.000000 
16.358692 -8.201115 -2.550512 0.000000 0.000000 0.000000 
17.532396 -10.181135 -3.341153 0.000000 0.000000 0.000000 
15.651474 -13.646171 -2.529758 0.000000 0.000000 0.000000 
16.651203 -13.712049 -3.844731 0.000000 0.000000 0.000000 
17.390905 -11.666150 -4.142007 0.000000 0.000000 0.000000 
11.895222 -19.844124 -5.250674 0.000000 0.000000 0.000000 
14.487047 -18.286491 -4.559630 0.000000 0.000000 0.000000 
15.253506 -16.121195 -4.515009 0.000000 0.000000 0.000000 
15.779375 -14.386506 -2.925353 0.000000 0.000000 0.000000 
16.512512 -12.035371 -2.414934 0.000000 0.000000 0.000000 
14.712029 -16.387623 -3.129833 0.000000 0.000000 0.000000 
13.837299 -17.199816 -3.308277 0.000000 0.000000 0.000000 
13.868940 -15.023717 -2.414934 0.000000 0.000000 0.000000 
12.963730 -13.646171 -1.730905 0.000000 0.000000 0.000000 
12.819300 -14.636180 -1.324696 0.000000 0.000000 0.000000 
12.742991 -18.101215 -3.508698 0.000000 0.000000 0.000000 
10.596315 -21.071245 -6.742147 0.000000 0.000000 0.000000 
12.866261 -20.922169 -8.246796 0.000000 0.000000 0.000000 
14.529432 -18.770378 -7.419225 0.000000 0.000000 0.000000 
15.264004 -16.615339 -8.134124 0.000000 0.000000 0.000000 
14.364182 -19.586231 -9.900352 0.000000 0.000000 0.000000 
14.149407 -20.112301 -8.849022 0.000000 0.000000 0.000000 
16.129772 -14.871877 -5.274529 0.000000 0.000000 0.000000 
14.998882 -17.111206 -5.519315 0.000000 0.000000 0.000000 
14.591518 -18.382713 -5.989428 0.000000 0.000000 0.000000 
13.351780 -20.277006 -6.745978 0.000000 0.000000 0.000000 
13.351780 -21.347031 -9.494865 0.000000 0.000000 0.000000 
12.380741 -21.639494 -9.740213 0.000000 0.000000 0.000000 
11.307190 -21.537481 -8.849022 0.000000 0.000000 0.000000 
9.648649 -20.122618 -5.274529 0.000000 0.000000 0.000000 
6.104866 -19.297327 -0.270238 0.000000 0.000000 0.000000 
8.982107 -19.475561 -0.377597 0.000000 0.000000 0.000000 
9.763199 -19.238026 -2.414934 0.000000 0.000000 0.000000 
7.484476 -19.091227 -5.879812 0.000000 0.000000 0.000000 
7.413691 -19.023676 -3.129833 0.000000 0.000000 0.000000 
4.612433 -18.791256 -2.881563 0.000000 0.000000 0.000000 
10.924183 -19.027748 -2.261952 0.000000 0.000000 0.000000 
10.814064 -20.033163 -4.559630 0.000000 0.000000 0.000000 
10.744583 -19.590431 0.444661 0.000000 0.000000 0.000000 
13.161301 -17.025217 -0.985136 0.000000 0.000000 0.000000 
12.216316 -18.885799 -1.700035 0.000000 0.000000 0.000000 
11.078747 -18.804005 -0.985136 0.000000 0.000000 0.000000 
8.089590 -20.576241 1.628552 0.000000 0.000000 0.000000 
5.049676 -21.566252 3.387806 0.000000 0.000000 0.000000 
7.525549 -22.950136 3.647464 0.000000 0.000000 0.000000 
5.727430 -23.234718 4.734054 0.000000 0.000000 0.000000 
5.583471 -22.776453 6.149058 0.000000 0.000000 0.000000 
8.383146 -23.795752 4.734054 0.000000 0.000000 0.000000 
10.438664 -23.784786 5.291183 0.000000 0.000000 0.000000 
9.888910 -24.041277 6.277242 0.000000 0.000000 0.000000 
11.409702 -22.709208 5.268400 0.000000 0.000000 0.000000 
10.675757 -22.061256 3.903527 0.000000 0.000000 0.000000 
7.525549 -23.353525 6.649803 0.000000 0.000000 0.000000 
6.554510 -23.432055 8.005769 0.000000 0.000000 0.000000 
11.895222 -21.447680 8.101258 0.000000 0.000000 0.000000 
11.045204 -20.936356 11.168141 0.000000 0.000000 0.000000 
18.692492 -19.723248 11.252786 0.000000 0.000000 0.000000 
17.721453 -20.353739 12.901689 0.000000 0.000000 0.000000 
13.351780 -20.370518 10.253797 0.000000 0.000000 0.000000 
16.721317 -19.091227 5.246574 0.000000 0.000000 0.000000 
14.806976 -19.458382 4.734054 0.000000 0.000000 0.000000 
19.178011 -18.034349 5.486917 0.000000 0.000000 0.000000 
19.178011 -16.769644 3.732625 0.000000 0.000000 0.000000 
19.178011 -11.173790 6.459917 0.000000 0.000000 0.000000 
19.178011 -16.290905 13.482383 0.000000 0.000000 0.000000 
16.264894 -16.048710 15.825454 0.000000 0.000000 0.000000 
18.206972 -16.320656 16.287008 0.000000 0.000000 0.000000 
20.270359 -16.616199 14.886216 0.000000 0.000000 0.000000 
17.045233 -20.615725 15.457534 0.000000 0.000000 0.000000 
18.870951 -20.081236 15.901370 0.000000 0.000000 0.000000 
17.036926 -19.586231 17.601135 0.000000 0.000000 0.000000 
15.934509 -20.081236 16.495203 0.000000 0.000000 0.000000 
15.036652 -20.033226 17.602232 0.000000 0.000000 0.000000 
15.651800 -20.774715 15.457534 0.000000 0.000000 0.000000 
10.438664 -19.241215 17.243370 0.000000 0.000000 0.000000 
9.086514 -17.606211 16.943544 0.000000 0.000000 0.000000 
12.189268 -9.980227 6.336699 0.000000 0.000000 0.000000 
19.949932 -14.052932 3.826174 0.000000 0.000000 0.000000 
21.120087 -12.172118 6.064931 0.000000 0.000000 0.000000 
20.536011 -16.121195 9.411953 0.000000 0.000000 0.000000 
21.036652 -15.139525 7.593648 0.000000 0.000000 0.000000 
21.780430 -17.606211 9.890098 0.000000 0.000000 0.000000 
21.895401 -16.616199 11.086122 0.000000 0.000000 0.000000 
13.837299 -15.925826 13.479994 0.000000 0.000000 0.000000 
8.044441 -16.587084 15.457534 0.000000 0.000000 0.000000 
3.037720 -16.121195 13.092406 0.000000 0.000000 0.000000 
5.127186 -17.987391 11.168141 0.000000 0.000000 0.000000 
5.097952 -20.082268 10.587907 0.000000 0.000000 0.000000 
7.525549 -18.787321 13.554648 0.000000 0.000000 0.000000 
5.583471 -17.504017 12.745692 0.000000 0.000000 0.000000 
3.937940 -17.160225 12.597939 0.000000 0.000000 0.000000 
4.034668 -15.131186 12.661738 0.000000 0.000000 0.000000 
3.536041 -13.151165 12.311728 0.000000 0.000000 0.000000 
1.213799 -5.398363 17.528463 0.000000 0.000000 0.000000 
-0.142568 -5.338467 21.176725 0.000000 0.000000 0.000000 
-2.117577 -6.013070 20.461826 0.000000 0.000000 0.000000 
-5.583471 -7.041284 23.016703 0.000000 0.000000 0.000000 
-2.367282 -5.726090 23.526669 0.000000 0.000000 0.000000 
-0.785006 -5.576424 22.606520 0.000000 0.000000 0.000000 
-3.155875 -6.479321 21.515093 0.000000 0.000000 0.000000 
-5.583471 -7.824365 20.023815 0.000000 0.000000 0.000000 
-3.641395 -7.458796 18.523275 0.000000 0.000000 0.000000 
-5.769899 -9.079111 16.887333 0.000000 0.000000 0.000000 
-10.272688 -9.387351 19.032028 0.000000 0.000000 0.000000 
-7.483843 -8.696118 19.533516 0.000000 0.000000 0.000000 
-0.728279 -5.895140 17.837740 0.000000 0.000000 0.000000 
3.408280 -4.809775 24.036318 0.000000 0.000000 0.000000 
0.669838 -5.063423 23.321419 0.000000 0.000000 0.000000 
6.068991 -3.775114 24.232502 0.000000 0.000000 0.000000 
1.699317 -4.978590 24.520882 0.000000 0.000000 0.000000 
0.440917 -5.231085 24.514032 0.000000 0.000000 0.000000 
-4.612433 -6.729968 23.015131 0.000000 0.000000 0.000000 
-3.641395 -6.109119 25.038830 0.000000 0.000000 0.000000 
-1.699317 -5.530680 25.020506 0.000000 0.000000 0.000000 
-6.180247 -6.716100 31.516130 0.000000 0.000000 0.000000 
-2.498179 -5.885941 31.185307 0.000000 0.000000 0.000000 
3.034105 -4.820851 29.040609 0.000000 0.000000 0.000000 
5.583471 -4.549612 29.022039 0.000000 0.000000 0.000000 
6.501955 -2.894055 26.895914 0.000000 0.000000 0.000000 
4.612433 -2.307070 27.649366 0.000000 0.000000 0.000000 
3.155875 -1.958092 29.418657 0.000000 0.000000 0.000000 
6.554510 -4.038096 27.631901 0.000000 0.000000 0.000000 
5.097952 -4.600084 28.022070 0.000000 0.000000 0.000000 
5.499099 -4.241074 30.029530 0.000000 0.000000 0.000000 
2.670356 -3.928826 32.008713 0.000000 0.000000 0.000000 
4.126914 -4.266678 31.229284 0.000000 0.000000 0.000000 
5.660402 -2.987765 30.470406 0.000000 0.000000 0.000000 
6.069883 -2.555336 29.040609 0.000000 0.000000 0.000000 
4.612433 -2.348572 28.821024 0.000000 0.000000 0.000000 
2.670356 -2.042586 27.068590 0.000000 0.000000 0.000000 
-1.066306 -1.766049 29.217499 0.000000 0.000000 0.000000 
-6.068991 -1.543694 32.866722 0.000000 0.000000 0.000000 
-2.184836 -2.056654 32.057716 0.000000 0.000000 0.000000 
-6.956889 -0.338631 30.470406 0.000000 0.000000 0.000000 
-8.496587 -0.052035 31.393957 0.000000 0.000000 0.000000 
-3.641395 -0.870150 25.199112 0.000000 0.000000 0.000000 
-6.068991 -0.480124 24.650999 0.000000 0.000000 0.000000 
-8.496587 0.204441 23.175430 0.000000 0.000000 0.000000 
-8.982106 -1.796690 16.146778 0.000000 0.000000 0.000000 
-8.535403 -3.020235 16.887333 0.000000 0.000000 0.000000 
-9.563876 -3.825806 14.027736 0.000000 0.000000 0.000000 
-7.888142 -3.639975 13.312839 0.000000 0.000000 0.000000 
-8.040866 -2.756060 14.160291 0.000000 0.000000 0.000000 
-8.560276 -0.793425 12.597939 0.000000 0.000000 0.000000 
-6.540447 0.216427 11.124457 0.000000 0.000000 0.000000 
-5.763055 0.708977 10.723750 0.000000 0.000000 0.000000 
-7.525548 1.132259 10.922744 0.000000 0.000000 0.000000 
-8.982106 0.833393 11.923055 0.000000 0.000000 0.000000 
-10.703690 1.203981 12.322413 0.000000 0.000000 0.000000 
-7.084822 -2.261053 11.725019 0.000000 0.000000 0.000000 
-5.922359 -1.271044 11.144511 0.000000 0.000000 0.000000 
-7.525548 -0.554808 11.737161 0.000000 0.000000 0.000000 
-8.831256 -4.241074 12.715861 0.000000 0.000000 0.000000 
-7.492013 -4.241074 11.574611 0.000000 0.000000 0.000000 
-5.583471 -4.875889 10.718513 0.000000 0.000000 0.000000 
-2.670356 -4.600826 9.741702 0.000000 0.000000 0.000000 
-1.888625 -2.732891 10.214105 0.000000 0.000000 0.000000 
0.736170 -3.796133 9.569802 0.000000 0.000000 0.000000 
0.587056 -5.726090 8.727045 0.000000 0.000000 0.000000 
3.007207 -11.271912 2.425634 0.000000 0.000000 0.000000 
10.438664 -11.628739 -1.138614 0.000000 0.000000 0.000000 
-1.187316 -8.825728 -2.340811 0.000000 0.000000 0.000000 
-6.751793 -13.151165 -1.434866 0.000000 0.000000 0.000000 
-8.669554 -10.416846 -0.798451 0.000000 0.000000 0.000000 
-8.496587 -7.805536 -1.340098 0.000000 0.000000 0.000000 
-9.953145 -6.086912 -2.358295 0.000000 0.000000 0.000000 
-8.694837 -4.754112 -2.414934 0.000000 0.000000 0.000000 
-7.450731 -0.578015 -2.414934 0.000000 0.000000 0.000000 
-9.953145 -4.395127 -3.175992 0.000000 0.000000 0.000000 
-10.351726 -9.993928 -3.844731 0.000000 0.000000 0.000000 
-9.666020 -9.191125 -6.329008 0.000000 0.000000 0.000000 
-10.259251 -4.241074 -6.781377 0.000000 0.000000 0.000000 
-10.348300 -2.756060 -4.390847 0.000000 0.000000 0.000000 
-8.496587 -2.316483 -3.003928 0.000000 0.000000 0.000000 
-6.068991 -8.377227 -1.755787 0.000000 0.000000 0.000000 
-6.068991 -10.409521 -1.453409 0.000000 0.000000 0.000000 
-5.591019 -15.131186 -1.473747 0.000000 0.000000 0.000000 
-8.496587 -14.323622 -1.479186 0.000000 0.000000 0.000000 
-6.630469 -15.131186 -1.671592 0.000000 0.000000 0.000000 
-0.896899 -16.121195 -1.913333 0.000000 0.000000 0.000000 
2.268187 -18.101215 -2.387058 0.000000 0.000000 0.000000 
1.458940 -17.303822 -0.985136 0.000000 0.000000 0.000000 
-0.728279 -16.007242 -0.270679 0.000000 0.000000 0.000000 
-0.728279 -16.787516 6.103851 0.000000 0.000000 0.000000 
-1.699317 -15.466808 1.587345 0.000000 0.000000 0.000000 
-3.362524 -14.141175 -0.880674 0.000000 0.000000 0.000000 
-4.549311 -11.908570 -1.410832 0.000000 0.000000 0.000000 
-10.277545 -9.191125 -2.326582 0.000000 0.000000 0.000000 
-9.953145 -11.862240 -3.707205 0.000000 0.000000 0.000000 
-9.404636 -13.656523 -2.414934 0.000000 0.000000 0.000000 
-8.982106 -11.990493 -1.297298 0.000000 0.000000 0.000000 
-10.924183 -7.873245 -3.529207 0.000000 0.000000 0.000000 
-10.924183 -5.235607 -3.373122 0.000000 0.000000 0.000000 
-10.142123 -6.716100 -5.549540 0.000000 0.000000 0.000000 
-9.699190 -6.716100 -7.956642 0.000000 0.000000 0.000000 
-9.458714 -10.181135 -12.520094 0.000000 0.000000 0.000000 
-10.243208 -16.121195 -13.458847 0.000000 0.000000 0.000000 
-9.716104 -13.159462 -10.993718 0.000000 0.000000 0.000000 
-9.133282 -10.699025 -9.563921 0.000000 0.000000 0.000000 
-9.541717 -1.752335 -12.423515 0.000000 0.000000 0.000000 
-10.158351 10.181656 -10.993718 0.000000 0.000000 0.000000 
-9.860425 8.629057 -11.116094 0.000000 0.000000 0.000000 
-9.693682 6.649036 -11.689499 0.000000 0.000000 0.000000 
-9.807350 6.649036 -14.892275 0.000000 0.000000 0.000000 
-9.953145 3.818416 -16.662901 0.000000 0.000000 0.000000 
-9.334899 0.787752 -16.712908 0.000000 0.000000 0.000000 
-9.493267 1.698986 -14.842312 0.000000 0.000000 0.000000 
-9.580223 8.629057 -12.714804 0.000000 0.000000 0.000000 
-10.924183 15.323048 -4.389347 0.000000 0.000000 0.000000 
-10.897768 16.996655 -4.559630 0.000000 0.000000 0.000000 
-10.398906 13.214973 -9.563921 0.000000 0.000000 0.000000 
-9.953145 8.790030 -8.715117 0.000000 0.000000 0.000000 
-10.489602 8.443737 -5.989428 0.000000 0.000000 0.000000 
-10.924183 12.257385 -4.758825 0.000000 0.000000 0.000000 
-10.529356 6.613462 -3.844731 0.000000 0.000000 0.000000 
-10.448259 0.213972 -5.829407 0.000000 0.000000 0.000000 
-11.084671 1.698986 -3.638129 0.000000 0.000000 0.000000 
-8.045074 12.094093 0.039206 0.000000 0.000000 0.000000 
-5.043549 15.064121 -2.824871 0.000000 0.000000 0.000000 
-7.566528 15.009850 -1.700035 0.000000 0.000000 0.000000 
-8.563232 18.342724 -3.844731 0.000000 0.000000 0.000000 
-9.917443 17.930565 -3.129833 0.000000 0.000000 0.000000 
-11.047398 15.064121 -6.180974 0.000000 0.000000 0.000000 
-10.754019 12.094093 -7.352062 0.000000 0.000000 0.000000 
-9.936161 10.114071 -14.129208 0.000000 0.000000 0.000000 
-9.865515 9.086639 -15.998010 0.000000 0.000000 0.000000 
-9.961686 6.582929 -17.427807 0.000000 0.000000 0.000000 
-10.103688 4.539604 -20.287403 0.000000 0.000000 0.000000 
-11.133417 7.814539 -23.146997 0.000000 0.000000 0.000000 
-10.628399 3.679006 -23.667942 0.000000 0.000000 0.000000 
-10.860168 5.944050 -23.146997 0.000000 0.000000 0.000000 
-12.318213 4.669018 -27.270508 0.000000 0.000000 0.000000 
-12.356705 6.417120 -26.721489 0.000000 0.000000 0.000000 
-12.822412 5.659027 -28.881708 0.000000 0.000000 0.000000 
-12.535231 8.629057 -27.310516 0.000000 0.000000 0.000000 
-12.053000 16.029976 -23.861895 0.000000 0.000000 0.000000 
-11.743299 16.602566 -26.721489 0.000000 0.000000 0.000000 
-11.108496 17.539150 -26.205502 0.000000 0.000000 0.000000 
-11.895222 14.012711 -22.569273 0.000000 0.000000 0.000000 
-12.091729 16.054134 -21.388109 0.000000 0.000000 0.000000 
-11.895222 10.030243 -24.325352 0.000000 0.000000 0.000000 
-10.829929 10.298721 -21.002300 0.000000 0.000000 0.000000 
-11.690011 13.579109 -19.575068 0.000000 0.000000 0.000000 
-11.935793 17.044144 -19.205378 0.000000 0.000000 0.000000 
-11.440210 14.561237 -17.427807 0.000000 0.000000 0.000000 
-12.129751 18.401947 -17.427807 0.000000 0.000000 0.000000 
-12.004640 19.519169 -18.623819 0.000000 0.000000 0.000000 
-11.976019 19.024162 -16.417053 0.000000 0.000000 0.000000 
-11.895222 16.711185 -15.797250 0.000000 0.000000 0.000000 
-11.788910 18.034153 -15.410911 0.000000 0.000000 0.000000 
-8.225643 19.045219 -11.708617 0.000000 0.000000 0.000000 
-11.100667 16.054134 -7.189264 0.000000 0.000000 0.000000 
-11.210661 16.549137 -5.792295 0.000000 0.000000 0.000000 
-9.990475 19.024162 -4.099453 0.000000 0.000000 0.000000 
-9.953145 16.170208 -2.194591 0.000000 0.000000 0.000000 
-10.660494 10.114071 -2.728059 0.000000 0.000000 0.000000 
-9.953145 9.722116 -0.526645 0.000000 0.000000 0.000000 
-9.064730 12.094093 -0.551356 0.000000 0.000000 0.000000 
-8.496587 13.720554 -0.411244 0.000000 0.000000 0.000000 
-8.949653 8.378323 0.518834 0.000000 0.000000 0.000000 
-4.545715 11.104084 -1.033873 0.000000 0.000000 0.000000 
-7.032279 6.183758 -0.328009 0.000000 0.000000 0.000000 
-4.824807 8.321779 -0.110359 0.000000 0.000000 0.000000 
-2.064392 15.126283 -3.844731 0.000000 0.000000 0.000000 
13.294521 19.024162 -12.012003 0.000000 0.000000 0.000000 
14.322819 6.232693 -8.637097 0.000000 0.000000 0.000000 
15.196903 3.712517 -7.419225 0.000000 0.000000 0.000000 
14.322819 3.942259 -9.676697 0.000000 0.000000 0.000000 
13.709025 16.785671 -13.138414 0.000000 0.000000 0.000000 
13.736639 16.054134 -14.795819 0.000000 0.000000 0.000000 
13.832369 3.609781 -11.708617 0.000000 0.000000 0.000000 
12.866261 10.500961 -17.703022 0.000000 0.000000 0.000000 
13.017819 12.094093 -17.380068 0.000000 0.000000 0.000000 
13.343906 12.589096 -19.379164 0.000000 0.000000 0.000000 
12.866261 11.316135 -18.136581 0.000000 0.000000 0.000000 
12.660164 10.114071 -18.703594 0.000000 0.000000 0.000000 
12.866261 8.322451 -19.292894 0.000000 0.000000 0.000000 
13.294413 10.609077 -23.103191 0.000000 0.000000 0.000000 
13.580967 12.094093 -22.308868 0.000000 0.000000 0.000000 
13.380375 14.342285 -21.717199 0.000000 0.000000 0.000000 
12.970173 17.414688 -21.002300 0.000000 0.000000 0.000000 
13.334631 9.730740 -24.576794 0.000000 0.000000 0.000000 
13.303799 16.054134 -23.799509 0.000000 0.000000 0.000000 
12.289600 18.228642 -25.291693 0.000000 0.000000 0.000000 
13.350344 12.094093 -29.108309 0.000000 0.000000 0.000000 
13.697409 9.619068 -28.699738 0.000000 0.000000 0.000000 
13.430224 7.255739 -29.581085 0.000000 0.000000 0.000000 
13.482058 4.669018 -29.281782 0.000000 0.000000 0.000000 
13.351780 6.607626 -31.788858 0.000000 0.000000 0.000000 
12.380741 4.193098 -32.600132 0.000000 0.000000 0.000000 
10.924183 4.317928 -33.434464 0.000000 0.000000 0.000000 
9.456652 5.164022 -33.441803 0.000000 0.000000 0.000000 
9.561859 0.414285 -33.870476 0.000000 0.000000 0.000000 
8.011068 1.526666 -33.770481 0.000000 0.000000 0.000000 
7.040030 1.095146 -33.693279 0.000000 0.000000 0.000000 
5.628489 2.193991 -33.657116 0.000000 0.000000 0.000000 
8.894474 3.679006 -33.549332 0.000000 0.000000 0.000000 
12.380741 6.690622 -32.335960 0.000000 0.000000 0.000000 
12.747419 8.134052 -32.274952 0.000000 0.000000 0.000000 
13.351780 8.350479 -31.295534 0.000000 0.000000 0.000000 
13.629604 10.504810 -27.436388 0.000000 0.000000 0.000000 
13.197573 14.915768 -28.866186 0.000000 0.000000 0.000000 
13.035713 13.084103 -30.912399 0.000000 0.000000 0.000000 
9.953144 12.859219 -31.222227 0.000000 0.000000 0.000000 
10.438664 9.849325 -32.583599 0.000000 0.000000 0.000000 
12.866261 10.668205 -32.250271 0.000000 0.000000 0.000000 
13.408112 9.615446 -31.725782 0.000000 0.000000 0.000000 
13.411743 10.114071 -30.503115 0.000000 0.000000 0.000000 
13.005457 16.549137 -27.202322 0.000000 0.000000 0.000000 
8.951929 17.044144 -26.981041 0.000000 0.000000 0.000000 
7.717400 14.569118 -28.863741 0.000000 0.000000 0.000000 
8.496588 14.975948 -29.144579 0.000000 0.000000 0.000000 
7.595203 16.054134 -26.858387 0.000000 0.000000 0.000000 
5.867659 15.064121 -27.864534 0.000000 0.000000 0.000000 
4.486080 14.569118 -27.833277 0.000000 0.000000 0.000000 
5.583471 16.440548 -24.981531 0.000000 0.000000 0.000000 
3.641395 16.246174 -24.473307 0.000000 0.000000 0.000000 
7.040030 17.184315 -24.269293 0.000000 0.000000 0.000000 
0.906297 18.034153 -17.122812 0.000000 0.000000 0.000000 
3.641395 17.902596 -18.681700 0.000000 0.000000 0.000000 
8.348072 20.509178 -16.151104 0.000000 0.000000 0.000000 
10.027027 21.004185 -16.650370 0.000000 0.000000 0.000000 
12.406597 20.014175 -16.009768 0.000000 0.000000 0.000000 
12.121483 20.014175 -19.568605 0.000000 0.000000 0.000000 
11.778504 19.391960 -22.432098 0.000000 0.000000 0.000000 
9.615320 20.014175 -20.823700 0.000000 0.000000 0.000000 
8.982107 18.514324 -24.388882 0.000000 0.000000 0.000000 
9.953144 20.960453 -18.248299 0.000000 0.000000 0.000000 
13.090313 18.034153 -18.203806 0.000000 0.000000 0.000000 
13.351780 14.569885 -18.589674 0.000000 0.000000 0.000000 
13.493898 15.805340 -17.427807 0.000000 0.000000 0.000000 
12.866261 19.465691 -14.207122 0.000000 0.000000 0.000000 
12.380741 20.249771 -12.172572 0.000000 0.000000 0.000000 
9.467625 20.953541 -14.012829 0.000000 0.000000 0.000000 
5.583471 15.933132 -3.149546 0.000000 0.000000 0.000000 
2.836359 15.826874 -3.844731 0.000000 0.000000 0.000000 
3.155875 16.666264 -6.221245 0.000000 0.000000 0.000000 
-5.017533 20.167858 -10.278820 0.000000 0.000000 0.000000 
-3.240196 17.044144 -5.471105 0.000000 0.000000 0.000000 
-8.372092 17.044144 -2.380040 0.000000 0.000000 0.000000 
-10.438663 13.601415 -2.097738 0.000000 0.000000 0.000000 
-10.450178 11.599088 -2.147874 0.000000 0.000000 0.000000 
-10.591693 7.144043 -1.701996 0.000000 0.000000 0.000000 
-9.953145 2.204489 -1.249533 0.000000 0.000000 0.000000 
-10.924183 4.779323 -2.871660 0.000000 0.000000 0.000000 
-6.832872 1.203981 -2.061002 0.000000 0.000000 0.000000 
-4.609274 0.708977 -2.468688 0.000000 0.000000 0.000000 
-6.369464 -2.261053 -2.800304 0.000000 0.000000 0.000000 
-5.454574 -4.241074 -2.570008 0.000000 0.000000 0.000000 
-5.555377 -5.832297 -2.468676 0.000000 0.000000 0.000000 
-3.621193 -5.011782 -2.718550 0.000000 0.000000 0.000000 
-3.229128 -6.879822 -2.571952 0.000000 0.000000 0.000000 
2.632587 -10.140734 -1.665563 0.000000 0.000000 0.000000 
-1.566352 -13.151165 2.397750 0.000000 0.000000 0.000000 
-3.733862 -11.290601 6.163850 0.000000 0.000000 0.000000 
-4.029949 -12.054326 4.734054 0.000000 0.000000 0.000000 
-5.097952 -13.355700 5.408177 0.000000 0.000000 0.000000 
-4.612433 -15.271318 8.074842 0.000000 0.000000 0.000000 
-6.554510 -15.241298 9.574674 0.000000 0.000000 0.000000 
-10.747094 -15.585952 11.168141 0.000000 0.000000 0.000000 
-9.210651 -15.131186 10.128441 0.000000 0.000000 0.000000 
-8.011067 -15.477144 11.075788 0.000000 0.000000 0.000000 
-7.040029 -15.356066 11.575184 0.000000 0.000000 0.000000 
-11.642664 -16.349318 13.312839 0.000000 0.000000 0.000000 
-12.374731 -17.111206 15.041174 0.000000 0.000000 0.000000 
-15.293857 -16.749895 15.534768 0.000000 0.000000 0.000000 
-19.663528 -15.911560 14.529613 0.000000 0.000000 0.000000 
-16.671192 -16.075384 14.742635 0.000000 0.000000 0.000000 
-14.322818 -16.723843 15.083529 0.000000 0.000000 0.000000 
-14.808337 -17.949198 17.088459 0.000000 0.000000 0.000000 
-9.953145 -16.354967 15.087316 0.000000 0.000000 0.000000 
-10.967865 -16.121195 16.276236 0.000000 0.000000 0.000000 
-12.464661 -16.121195 17.224182 0.000000 0.000000 0.000000 
-12.866261 -13.628603 18.064068 0.000000 0.000000 0.000000 
-10.967865 -12.656160 18.096344 0.000000 0.000000 0.000000 
-10.967865 -14.469523 16.887333 0.000000 0.000000 0.000000 
-9.303959 -8.024803 21.176725 0.000000 0.000000 0.000000 
-8.688714 -5.726090 24.558731 0.000000 0.000000 0.000000 
-6.778344 -6.796429 24.751217 0.000000 0.000000 0.000000 
-9.467626 -6.850697 22.969891 0.000000 0.000000 0.000000 
-11.895222 -2.766218 21.585400 0.000000 0.000000 0.000000 
-10.847614 -4.736080 19.583023 0.000000 0.000000 0.000000 
-11.895222 -5.237288 16.799002 0.000000 0.000000 0.000000 
-11.185882 -2.756060 19.763889 0.000000 0.000000 0.000000 
-11.383595 -1.271044 19.321676 0.000000 0.000000 0.000000 
-11.035294 -1.236839 17.602232 0.000000 0.000000 0.000000 
-12.380741 0.646732 18.731468 0.000000 0.000000 0.000000 
-14.043793 3.184002 19.186861 0.000000 0.000000 0.000000 
-10.924183 2.763084 19.077572 0.000000 0.000000 0.000000 
-9.374021 1.092073 21.176725 0.000000 0.000000 0.000000 
-7.547241 1.745252 19.032028 0.000000 0.000000 0.000000 
-5.583471 1.347559 18.601074 0.000000 0.000000 0.000000 
-3.974795 0.343351 19.032028 0.000000 0.000000 0.000000 
-5.039115 2.362341 16.887333 0.000000 0.000000 0.000000 
-3.500989 1.203981 16.481016 0.000000 0.000000 0.000000 
-5.043549 4.174011 15.646880 0.000000 0.000000 0.000000 
-5.097952 7.414295 15.900798 0.000000 0.000000 0.000000 
-7.547241 8.134052 16.792677 0.000000 0.000000 0.000000 
-7.007225 4.002880 16.887333 0.000000 0.000000 0.000000 
-6.544434 6.154032 16.818493 0.000000 0.000000 0.000000 
-8.982106 4.358131 17.766802 0.000000 0.000000 0.000000 
-6.755922 0.831100 21.176725 0.000000 0.000000 0.000000 
-5.583471 0.156084 22.530392 0.000000 0.000000 0.000000 
-3.871875 -0.281035 21.815891 0.000000 0.000000 0.000000 
0.646929 -1.766049 24.542128 0.000000 0.000000 0.000000 
-1.706278 -1.271044 24.419102 0.000000 0.000000 0.000000 
-2.798490 -1.314499 26.895914 0.000000 0.000000 0.000000 
-0.857785 -1.729632 26.895914 0.000000 0.000000 0.000000 
0.614724 -2.270146 28.325712 0.000000 0.000000 0.000000 
0.951705 -2.150343 26.895914 0.000000 0.000000 0.000000 
-2.184836 -0.943480 22.940895 0.000000 0.000000 0.000000 
-0.728279 -1.517155 21.947432 0.000000 0.000000 0.000000 
-4.799490 0.415260 20.461826 0.000000 0.000000 0.000000 
-6.544434 2.398582 17.602232 0.000000 0.000000 0.000000 
-6.285955 9.124062 14.777024 0.000000 0.000000 0.000000 
-10.898058 9.124062 11.421182 0.000000 0.000000 0.000000 
-8.496587 9.629862 11.896309 0.000000 0.000000 0.000000 
-7.040029 9.686865 11.014249 0.000000 0.000000 0.000000 
-4.126914 9.274904 14.456023 0.000000 0.000000 0.000000 
-4.819931 9.756643 12.597939 0.000000 0.000000 0.000000 
-6.554510 9.431337 13.182253 0.000000 0.000000 0.000000 
-4.238424 9.578556 11.168141 0.000000 0.000000 0.000000 
-10.924183 8.036730 10.234702 0.000000 0.000000 0.000000 
-8.496587 8.378898 9.849165 0.000000 0.000000 0.000000 
-6.473567 8.537697 9.738345 0.000000 0.000000 0.000000 
-4.091555 7.144043 8.257354 0.000000 0.000000 0.000000 
-6.068991 6.134729 8.991503 0.000000 0.000000 0.000000 
-2.087752 5.659027 6.465415 0.000000 0.000000 0.000000 
-2.670356 10.129055 8.047990 0.000000 0.000000 0.000000 
-1.214004 11.599088 9.033450 0.000000 0.000000 0.000000 
0.934601 13.089134 7.593648 0.000000 0.000000 0.000000 
1.699317 12.473961 9.825728 0.000000 0.000000 0.000000 
0.454529 12.094093 9.445110 0.000000 0.000000 0.000000 
1.433643 11.599088 10.774503 0.000000 0.000000 0.000000 
-0.242760 11.487915 10.630631 0.000000 0.000000 0.000000 
-0.728279 13.159715 7.014762 0.000000 0.000000 0.000000 
-1.037461 12.327274 8.308548 0.000000 0.000000 0.000000 
1.213799 12.665691 9.213898 0.000000 0.000000 0.000000 
5.097952 17.036163 12.170992 0.000000 0.000000 0.000000 
6.068991 18.503170 11.853147 0.000000 0.000000 0.000000 
4.936859 17.539150 11.587871 0.000000 0.000000 0.000000 
3.931793 18.034153 10.925447 0.000000 0.000000 0.000000 
3.953055 21.004185 10.532887 0.000000 0.000000 0.000000 
4.543391 22.984203 10.088117 0.000000 0.000000 0.000000 
3.641395 21.678886 9.544975 0.000000 0.000000 0.000000 
3.475191 18.034153 6.971568 0.000000 0.000000 0.000000 
1.452472 14.569118 6.799925 0.000000 0.000000 0.000000 
0.789186 16.549137 8.179184 0.000000 0.000000 0.000000 
6.068991 20.075134 7.013795 0.000000 0.000000 0.000000 
3.641395 -2.851160 31.624483 0.000000 0.000000 0.000000 
2.670356 -4.971811 31.021973 0.000000 0.000000 0.000000 
0.728279 -4.772436 32.433338 0.000000 0.000000 0.000000 
1.699317 -5.081387 31.521246 0.000000 0.000000 0.000000 
-0.275857 -2.307795 31.900204 0.000000 0.000000 0.000000 
1.499756 -2.710306 31.900204 0.000000 0.000000 0.000000 
1.699317 -2.096840 31.621168 0.000000 0.000000 0.000000 
-1.213798 -4.887579 33.033939 0.000000 0.000000 0.000000 
-4.995819 -4.736080 33.955544 0.000000 0.000000 0.000000 
-1.699317 -2.933590 32.859493 0.000000 0.000000 0.000000 
-3.498993 -3.746069 33.856300 0.000000 0.000000 0.000000 
-4.010059 -2.261053 32.963017 0.000000 0.000000 0.000000 
-3.976988 -1.766049 33.119194 0.000000 0.000000 0.000000 
-4.612433 -2.448763 33.589695 0.000000 0.000000 0.000000 
-6.000610 -3.683764 34.044899 0.000000 0.000000 0.000000 
-8.496587 -3.849203 34.202648 0.000000 0.000000 0.000000 
-9.467626 -1.744469 33.954674 0.000000 0.000000 0.000000 
-8.495911 -5.231085 34.172703 0.000000 0.000000 0.000000 
-12.380741 -6.814331 34.014137 0.000000 0.000000 0.000000 
-11.409702 -7.514360 33.042439 0.000000 0.000000 0.000000 
-9.851058 -5.847717 34.044899 0.000000 0.000000 0.000000 
-7.525548 -2.127596 33.717037 0.000000 0.000000 0.000000 
-3.155875 -5.691595 33.010532 0.000000 0.000000 0.000000 
0.242760 -5.488260 30.010851 0.000000 0.000000 0.000000 
-1.684653 -5.726090 26.512903 0.000000 0.000000 0.000000 
-5.097952 -6.393847 30.013901 0.000000 0.000000 0.000000 
-6.068991 -6.546875 29.018415 0.000000 0.000000 0.000000 
-9.500732 -7.404197 33.330002 0.000000 0.000000 0.000000 
-7.040029 -6.810341 32.517048 0.000000 0.000000 0.000000 
-7.655551 -5.231085 33.832447 0.000000 0.000000 0.000000 
-8.496587 -6.572534 33.655563 0.000000 0.000000 0.000000 
-8.210912 -7.211105 32.242744 0.000000 0.000000 0.000000 
-3.155875 -5.944935 27.010370 0.000000 0.000000 0.000000 
1.213799 -4.982615 26.521463 0.000000 0.000000 0.000000 
3.641395 -4.729386 26.021280 0.000000 0.000000 0.000000 
5.097952 -4.569840 26.021051 0.000000 0.000000 0.000000 
6.274981 -3.257277 25.466118 0.000000 0.000000 0.000000 
4.250070 -4.736080 21.522991 0.000000 0.000000 0.000000 
5.097952 -2.155586 23.090612 0.000000 0.000000 0.000000 
5.256314 -1.680651 19.032028 0.000000 0.000000 0.000000 
6.068991 -1.784226 16.820770 0.000000 0.000000 0.000000 
3.993500 -1.121643 16.887333 0.000000 0.000000 0.000000 
-1.043060 0.835264 14.742635 0.000000 0.000000 0.000000 
-1.544952 2.193991 13.903132 0.000000 0.000000 0.000000 
-0.041260 2.688997 13.597426 0.000000 0.000000 0.000000 
0.997833 3.679006 13.293213 0.000000 0.000000 0.000000 
-2.043060 6.154032 14.995416 0.000000 0.000000 0.000000 
-1.043060 5.659027 14.511776 0.000000 0.000000 0.000000 
1.458313 4.669018 13.296199 0.000000 0.000000 0.000000 
2.957184 6.154032 14.093461 0.000000 0.000000 0.000000 
-0.041260 5.659027 14.004008 0.000000 0.000000 0.000000 
2.184836 6.536838 13.962090 0.000000 0.000000 0.000000 
3.952362 6.649036 14.296865 0.000000 0.000000 0.000000 
6.554510 7.103283 14.061276 0.000000 0.000000 0.000000 
5.097952 10.337227 14.618594 0.000000 0.000000 0.000000 
6.543345 11.599088 14.628296 0.000000 0.000000 0.000000 
7.956011 11.424400 17.602232 0.000000 0.000000 0.000000 
3.952362 8.629057 15.470717 0.000000 0.000000 0.000000 
8.610312 14.074112 15.598940 0.000000 0.000000 0.000000 
6.457306 10.476234 16.172434 0.000000 0.000000 0.000000 
5.958710 9.619068 16.752583 0.000000 0.000000 0.000000 
7.177933 2.688997 7.925752 0.000000 0.000000 0.000000 
6.554510 1.894510 10.526958 0.000000 0.000000 0.000000 
4.296078 -1.099148 9.761306 0.000000 0.000000 0.000000 
0.728279 -0.605038 9.731490 0.000000 0.000000 0.000000 
-0.154754 -2.261053 9.881550 0.000000 0.000000 0.000000 
-1.213798 -4.025562 9.767613 0.000000 0.000000 0.000000 
1.699317 -2.706215 9.693666 0.000000 0.000000 0.000000 
6.038401 -5.231085 9.838080 0.000000 0.000000 0.000000 
6.762362 -7.536666 7.268944 0.000000 0.000000 0.000000 
7.268492 -8.747602 5.923379 0.000000 0.000000 0.000000 
8.777100 -8.644226 6.120359 0.000000 0.000000 0.000000 
7.379662 -7.706110 9.047182 0.000000 0.000000 0.000000 
5.111721 -1.556153 10.453242 0.000000 0.000000 0.000000 
4.956421 2.193991 11.248708 0.000000 0.000000 0.000000 
2.914106 2.193991 13.523871 0.000000 0.000000 0.000000 
0.955658 1.203981 14.146546 0.000000 0.000000 0.000000 
-0.190428 0.014284 16.172434 0.000000 0.000000 0.000000 
1.499756 -0.281035 15.685491 0.000000 0.000000 0.000000 
1.699317 2.486511 13.444228 0.000000 0.000000 0.000000 
2.670356 3.954574 13.117332 0.000000 0.000000 0.000000 
5.453003 4.669018 12.092698 0.000000 0.000000 0.000000 
9.225926 7.556730 11.979232 0.000000 0.000000 0.000000 
8.384577 4.802116 10.193875 0.000000 0.000000 0.000000 
11.064421 8.656208 16.406881 0.000000 0.000000 0.000000 
14.590000 8.785272 13.968171 0.000000 0.000000 0.000000 
13.997177 15.515114 15.457534 0.000000 0.000000 0.000000 
12.709932 16.054134 19.090548 0.000000 0.000000 0.000000 
14.898167 15.064121 12.250203 0.000000 0.000000 0.000000 
13.351780 14.895340 13.254827 0.000000 0.000000 0.000000 
16.929039 9.619068 4.502454 0.000000 0.000000 0.000000 
16.457794 7.639047 9.631357 0.000000 0.000000 0.000000 
14.232092 5.510002 4.994708 0.000000 0.000000 0.000000 
15.873097 7.603414 4.784196 0.000000 0.000000 0.000000 
17.194849 7.097069 6.346381 0.000000 0.000000 0.000000 
18.767736 8.592278 6.116212 0.000000 0.000000 0.000000 
18.692492 11.430943 5.372697 0.000000 0.000000 0.000000 
11.809092 5.376152 5.781102 0.000000 0.000000 0.000000 
9.707037 5.380844 5.770693 0.000000 0.000000 0.000000 
13.683542 7.691505 4.052478 0.000000 0.000000 0.000000 
13.845583 5.742876 5.618908 0.000000 0.000000 0.000000 
15.132584 6.080883 5.448952 0.000000 0.000000 0.000000 
12.472962 5.659027 6.710305 0.000000 0.000000 0.000000 
11.543221 4.972029 9.322931 0.000000 0.000000 0.000000 
13.455505 8.661812 20.461826 0.000000 0.000000 0.000000 
18.003372 13.579109 7.396399 0.000000 0.000000 0.000000 
17.235933 14.277039 8.634418 0.000000 0.000000 0.000000 
15.273409 14.938763 8.308548 0.000000 0.000000 0.000000 
15.293856 15.320858 10.330787 0.000000 0.000000 0.000000 
13.351780 16.368626 9.234803 0.000000 0.000000 0.000000 
