4.033684155372233363e+03 1.484133681707125561e+03 -5.408975696263244117e+02
-2.047731550751936993e+02 8.232859224992312193e+02 -2.909046140833038862e+03
-3.337515386612273005e+02 1.423900114575600583e+03 -8.177662146704864199e+02
3.905878101562157553e+03 9.708008754761153796e+02 -1.453512396092240806e+02
2.544740395516739227e+03 -5.132024216313261604e+02 2.089349051788572069e+02
-4.030594519882488385e+02 1.425027250627733110e+03 -1.449912244970810434e+03
-6.666512672218941589e+02 8.621809552778713623e+02 -2.932220140482422266e+03
2.469722797720397011e+03 1.284266277333163998e+03 -4.401550129612287492e+02
1.620161627196292329e+03 7.238110625501556115e+02 -8.678330464301639040e+02
1.113484208269328064e+03 1.481054581775734277e+03 -2.818402730477944260e+03
1.202509562862298480e+03 1.391050521547598692e+03 -9.758697309675821998e+02
1.041332316159013772e+03 1.423975827102576204e+03 -6.780416161525249663e+01
-8.241506958999980270e+01 1.437132989566602191e+03 -1.686276401160079331e+03
-6.530658416171854697e+01 1.398848697322095859e+03 -1.214311807188239527e+02
-2.910482209473489092e+02 9.575411412054459106e+02 -2.914197373403202619e+03
1.458543745608521931e+02 1.080343395191493528e+03 -9.931002435694736050e+02
8.082106822829723569e+01 1.427162969022229845e+03 -9.328861083793807438e+02
1.880272780970813983e+03 5.974580912121464280e+02 -2.810698628277516946e+03
1.484305366815038269e+03 9.001515934473991365e+02 6.260946812507017967e+01
2.246478243826048129e+03 1.350179793739475826e+03 -2.797458993158466001e+03
1.756375214929711547e+03 1.440451725635115508e+03 5.974167173970636213e+01
1.693008871763530806e+03 1.486080377837482501e+03 -2.714083879338973020e+03
-7.056267346513095617e+00 8.789416599858175232e+02 3.788696884678306560e+02
6.063214395009954387e+02 1.409737341684435705e+03 2.635795207961832602e+02
1.500556146832227569e+03 1.482283971372423366e+03 -2.610401687981237046e+03
-9.673989287422364214e+01 1.027565611693255505e+03 -2.903786232011735592e+03
4.475371987040934982e+02 1.121466660806925120e+03 -2.878643635927650848e+03
1.143510518841564135e+03 1.433845918294423882e+03 3.703059221744551905e+02
1.622134814867060641e+03 6.747826160282381807e+02 -6.544747185023884413e+02
2.155884585334136318e+03 1.479218562799354913e+03 -9.900795171741474405e+02
3.335562554185041790e+02 1.464109924398052954e+03 -2.649374402607897082e+03
1.132492230514628773e+01 9.247743757658289496e+02 -5.011785030525436468e+02
3.029047177798031498e+03 9.864209487491548316e+02 -2.764158981110925197e+03
5.565247376771793597e+00 1.411636677011300435e+03 -5.753958365943109357e+02
1.473983117297307899e+03 1.375474997439227991e+03 8.902601376507102486e+02
6.672305918476195075e+01 1.417407316310771193e+03 -6.498866452216716425e+02
1.070778490557269151e+03 7.351746209764585274e+02 -2.860924745177868772e+03
5.869309374128974923e+02 1.250545185685534989e+03 -5.551518105860020569e+02
1.381933486105656357e+03 8.866752209608416706e+02 7.474702361143163216e+02
7.849697207825387295e+02 1.475503193401669250e+03 -2.131324188802465869e+03
1.522734748323752228e+03 5.864703286700801073e+02 -1.181423753396857137e+02
1.106811186755877316e+03 1.088873307031109107e+03 -5.682522196720069587e+02
4.562644893362111134e+02 1.450534281085142993e+03 -1.615040599688225939e+03
1.504871874012782200e+03 1.493750983098700317e+03 -1.710159884932561681e+03
7.943845807149443772e+02 1.095585496860311423e+03 -5.308561177794358628e+02
6.336661767529660665e+02 1.447818388981148019e+03 -1.415248199157235149e+03
6.763617455401322331e+02 1.097694031504511031e+03 -6.150131203774183177e+02
2.032244481887617894e+03 1.452453866781307624e+03 6.674214778283335363e+02
-4.886121489279921661e+02 1.440780870955525643e+03 -2.074245186041337092e+03
7.502537035029986328e+02 8.348793796130897817e+02 -2.784275455357800183e+03
7.790487285188851274e+01 1.094839794014623294e+03 1.707217251563544096e+02
1.678589064413989036e+03 7.393501680458675764e+02 -6.714814249070900587e+02
4.044308313762003877e+02 1.427318021623372260e+03 -7.227484907578195816e+02
-2.532336938360303691e+01 1.166335201892927444e+03 -4.918519095286970924e+02
7.512934957083650716e+02 1.421214740454171306e+03 7.538556980446212492e+02
1.479710377898528805e+03 6.358270525079401523e+02 -7.756711938135003948e+02
-4.944159422043352379e+02 9.964274970917225573e+02 -2.926989941543346958e+03
2.777255007163680602e+02 1.448762107649781910e+03 -1.690834956756898919e+03
1.466344233982386868e+03 9.634388798027543999e+02 -4.597042240784489309e+02
3.686751791173996935e+02 1.448533683146200474e+03 -1.575025053415229195e+03
7.653683186006496726e+02 9.820307945323143031e+02 -6.464670018927135970e+02
-1.091068757951443331e+02 1.429438438477920499e+03 -8.901629363484037185e+02
4.613615051683529600e+03 2.393804855129800671e+03 1.211602992100987649e+03
1.430738267674527378e+03 1.149201433896319941e+03 -7.132452532047520890e+02
1.480830522691406259e+03 4.148217220659289524e+02 -8.585898414138550834e+02
-2.474745554754881596e+02 1.420655903039829127e+03 -9.597594189558109292e+02
1.801550841161591279e+03 1.485766958866111736e+03 -2.390879113660004805e+03
1.328269150130892740e+03 1.479840411009322679e+03 -1.529520670132515079e+03
1.546957138241119537e+03 5.340020291273658586e+02 3.631830241097968610e+02
1.677835286586032908e+03 7.395438356828344695e+02 2.397419907430826242e+02
5.982814017085750038e+02 9.781413293986962572e+02 -9.810138906681788740e+02
-8.025893888707309998e+01 6.957495251290883971e+02 3.609254922380816879e+02
1.005540425981455655e+03 1.427479998098816168e+03 2.908024255986903199e+02
2.426312691634629573e+03 1.435317650358423634e+03 -1.554587662612334498e+02
1.486004184710244544e+02 1.461151041532596082e+03 -2.490515145349350405e+03
8.770239058201077569e+02 1.001233457283434291e+03 -6.534966232983956615e+02
1.443917827286403963e+03 4.952820855120087344e+02 -6.602052054922521620e+02
2.931325885361835049e+02 1.412467903627479018e+03 -1.020814419149266996e+02
1.353008980691999113e+03 5.359760222693826108e+02 -2.848531699895077963e+03
3.123991571047888556e+03 1.304812126703389822e+03 -2.765512714480729755e+03
6.130313853050175794e+02 1.077491780269298943e+03 -7.164178909545013312e+02
2.016965060008315618e+02 1.245228498115875027e+03 8.477566669216353148e+02
2.579521740920015418e+02 1.458290807959497670e+03 -2.172899424156340501e+03
1.601102404168032763e+03 7.362742086958694472e+02 7.403903800057898934e+02
3.640574283821192694e+03 2.116511436347695962e+03 2.708803414876007082e+03
1.349324927366607426e+03 1.084634410835554718e+03 -4.993056691420056836e+02
1.382733965257275031e+03 1.418597657498432909e+03 -9.046838205123556236e+02
2.186789735640555591e+03 1.483432985625439869e+03 -7.538593412478739992e+02
-8.274346580923015608e+02 1.287565083518852134e+03 -2.939890499624069435e+03
1.075219712002965025e+03 1.476929311626983690e+03 -2.656179922320230617e+03
2.639383839690047353e+03 5.473538569425545575e+02 -2.771541253464946749e+03
5.908087353764895511e+01 1.361118509626737250e+03 -4.929819230084946184e+02
1.489805436320857552e+03 7.757369971207637036e+02 -8.141485937238667248e+01
-7.160040510572771382e+02 1.434221941201457412e+03 -2.626275377703896083e+03
1.549139911350633838e+03 6.385280295129166461e+02 -1.079852363027895763e+03
1.748561337169445324e+03 1.182137538018059786e+03 -2.821469306608513762e+03
3.003572812095148947e+02 1.462485023156730222e+03 -2.501487813458956680e+03
1.503266514021540843e+02 1.427994237717523447e+03 -1.337725514720962565e+03
1.336032256446346764e+03 8.357336999127765012e+02 8.840525378179581821e+02
3.848700536408741755e+03 1.327264470982235252e+03 -7.759266003085440389e+02
-3.923331521197587790e+01 9.327575395212288640e+02 3.740132436497490289e+02
-4.182056037198053673e+02 1.436529390111451676e+03 -1.909711006953751621e+03
3.712514809704803156e+02 1.464496713053503754e+03 -2.814902120826791361e+03
8.547312543365053443e+02 1.422611552502104814e+03 5.067823797996047688e+02
1.995463088868509431e+03 1.481720559327993215e+03 -9.846433955479571978e+02
-9.926255046660307357e+01 1.417957736473336354e+03 -5.323638920740074809e+02
6.043088434003361726e+02 1.472025427961451442e+03 -2.315833579902649944e+03
1.957532490711362470e+03 1.495303430650327755e+03 -2.112668673050327925e+03
1.833025151083320452e+03 1.491699518538728171e+03 -1.556180576643521363e+03
6.723589159955434980e+02 1.292850912347574877e+03 -9.346778979632767914e+02
1.562093498515601823e+03 5.975151187788476363e+02 2.219286094881067584e+01
1.104503305106763946e+03 1.484159233825979754e+03 -2.024136741539567993e+03
3.018903321532147402e+03 1.476255649050801821e+03 -5.383932247575322663e+02
1.494924263541450728e+03 9.570475593181819249e+02 -8.176452011297294575e+01
1.229396308801572104e+03 9.549387872061492999e+02 -4.644864531706471098e+02
6.769725470242507299e+02 1.094096997727554481e+03 -9.572159003784862534e+02
1.558477541347854185e+03 -7.095744232967672360e+01 -2.648114168577076271e+02
6.184164267007845410e+02 1.462142400033063950e+03 -1.866096355269455216e+03
2.575672896100282287e+03 4.594264043350085558e+02 4.664352794104770510e+02
2.354190141842349249e+02 1.087051631509582649e+03 -2.886731206068407118e+03
2.155337979200438895e+03 1.463522518777432651e+03 -2.853293657390895532e+01
1.543687536905437582e+03 7.014825872062089047e+02 -6.538648864124297688e+01
-1.480604725151308401e+02 1.338306410846407061e+03 -2.229134531212256434e+02
8.086235034953219838e+02 1.462074014553315465e+03 -1.752820753325383066e+03
1.329453229392090861e+03 5.546115777690406503e+02 -5.188134741613998813e+02
2.526544499242073016e+03 1.489593880257126784e+03 -7.100863869303070715e+02
-6.322089232871699096e+02 7.031537445752260282e+02 -2.935211876029452469e+03
-3.278390332850407276e+02 1.395298853776021588e+03 -1.262999946257874626e+02
3.050164498409796124e+03 1.561000556415725669e+02 7.089656444052511688e+02
1.341101103837152550e+03 1.444225976990465824e+03 5.829424361618875992e+02
1.234643875510230373e+03 1.100533919058076208e+03 -1.627558817419344450e+01
9.461246071313377115e+02 1.476673023767355062e+03 -2.502697412501264353e+03
1.566389757756787958e+03 9.881176705834297991e+02 -3.014493982755099637e+02
9.907115710080292956e+02 1.441481484711188386e+03 -8.106034561166843559e+02
2.845761240163945786e+03 1.505244119777903961e+03 -1.083961755058023755e+03
4.239433679175182078e+03 2.629776080391350661e+03 1.115842501333133441e+03
1.330813251340361148e+03 1.029563346358706895e+03 5.876386623369689914e+02
2.605783640524550719e+02 1.413889304702837990e+03 -9.924031634603907150e+02
1.344735967616372136e+03 6.198664283775741524e+02 -4.150785004077313260e+02
2.533615710221050904e+03 -1.350072937939057738e+02 -1.054528759282785359e+03
8.608597216428661341e+02 1.420420764747788780e+03 -9.589053214509476675e+00
4.443823373697306351e+02 1.101613359289622849e+03 -9.866140665307245854e+02
2.187218427318716749e+03 1.488786209100272117e+03 -1.327304778271355644e+03
-1.889816895997000756e+01 6.056542092304048310e+02 8.252132817402959972e+02
1.372447901026052477e+03 1.004526883738117249e+03 3.498658997570414613e+02
8.833636044097009972e+02 1.030661189080611166e+03 -2.859883442014550383e+03
-3.360325337654930991e+02 1.377063506786298149e+03 -2.914555253908163195e+03
5.816820339704735261e+02 1.354694191312391467e+03 -4.822856634160553995e+02
-3.521687444249782857e+02 1.448929720598595168e+03 -2.356849066763501924e+03
-3.947753707439966320e+02 1.445835133339790673e+03 -2.538866815395756930e+03
2.763409272159752845e+02 1.432782346155895993e+03 -8.703603977928592030e+02
-1.412454056683463932e+01 1.069456725348937653e+03 2.965530412770112889e+02
2.307321804351769060e+03 1.508036104075156345e+03 -2.552418807545210257e+03
2.448329499113381644e+03 1.249155447289725998e+03 -1.741873532669205815e+02
4.027341416960872493e+02 1.445611041990415288e+03 -1.422219895270351572e+03
-6.820378411019828491e+01 1.451348197396207070e+03 -2.309563550243283316e+03
1.338283955955130750e+03 6.788931451072362506e+02 -2.848073755800567596e+03
1.124553397837045623e+03 6.496533925598714632e+02 8.790553476498773762e+02
3.806019390029840906e+03 1.232642280345802646e+03 -1.107064537361759449e+01
2.526512086043817362e+03 1.498296287894770558e+03 -1.891160369767791508e+03
1.370730409557780604e+03 1.426236765922286850e+03 4.485781751976255691e+02
1.261669810650476393e+03 1.455758558469563695e+03 -8.270939770772581596e+02
5.964079878966003889e+00 1.361178570576248603e+03 -2.337424789418005275e+02
4.291722194953649705e+01 9.609065231493611918e+02 3.645135784898313887e+02
2.659559341574442897e+03 1.275877892295433867e+03 -2.786987455783810674e+03
1.476873659141796452e+03 5.099752187672640957e+02 -9.963148721166089672e+02
5.673668865954250577e+02 1.289521421457228826e+03 8.611688986561130150e+02
1.425969044300159567e+03 9.156056124712685005e+02 5.678117352580488841e+02
1.676014643393266397e+03 5.857731409017719670e+02 -2.831475189205630159e+03
1.284209725106300368e+02 1.370188453832993218e+03 -1.004796451908418135e+03
2.203159626334883797e+03 7.819823822211674269e+02 -2.792522066326489949e+03
5.551526807119811338e+02 1.414558549369593038e+03 -4.484190977372202269e+01
1.589602409772684950e+03 4.825613038771243737e+02 -7.713315582027735218e+01
1.272213917855701766e+03 6.272673129131831047e+02 8.736114901404757802e+02
1.212830089441458767e+03 1.070512749793146668e+03 -7.098184953173097256e+02
5.999530120611361781e+02 8.118496391581115859e+02 8.441403134198626503e+02
1.466117071636893343e+03 8.602258709848256331e+02 2.898986127636017045e+02
3.867096796948464544e+03 -2.855925928502608713e+01 4.731863544086409092e+02
1.556277292994424442e+03 5.977443042115141907e+02 2.433734177956275744e+02
-1.395481697268221524e+02 1.431647432799130911e+03 -1.375237357413359632e+03
3.277339407528329502e+02 1.463667706359689419e+03 -2.345251066734341293e+03
8.210329195944536878e+02 1.091391518699722837e+03 -5.044623207727976819e+02
-7.996217284085269057e+02 1.012100060985812434e+03 -2.935897844062281365e+03
2.678818069895705776e+02 1.213287045571768886e+03 -2.890174359290516804e+03
8.994682072571124536e+02 1.422928539041095064e+03 2.818730865298547315e+02
1.490784537980946425e+03 5.251245173958900523e+02 -9.142225175052742543e+02
3.605178288863125999e+03 9.888355824677910277e+01 -2.741408931785947971e+03
-6.579273126469573185e+01 1.398435030484687331e+03 8.554489743540511881e+01
7.584978211557232726e+02 1.168015174781340193e+03 -2.864702542574639210e+03
1.385580216014382131e+03 5.537432044694612614e+02 -6.082385953401960705e+02
1.560036865263501113e+03 1.401252662569793301e+03 -1.372851166823845688e+02
1.563645367556932342e+03 2.955309766252962618e+02 -3.033344738093273918e+02
-9.837154663774799701e+01 1.170822343049096617e+03 -2.904920676442650347e+03
-4.832567095050183070e+02 1.428870842955355329e+03 -1.636701051753728279e+03
1.449187382730685613e+03 7.306054011930318666e+02 7.031816988325483635e+02
1.211458050301016556e+02 1.443255399223505719e+03 -1.769075970654908815e+03
3.902629134970860378e+03 -8.720542022981021546e+01 -6.741124463387534433e+02
1.262872946321338759e+03 1.442517049656288464e+03 -6.555661961270345728e+01
6.946774682912839580e+02 1.050007533773992463e+03 -6.941351223490751181e+02
1.641319366074132631e+03 7.320964981847860145e+02 -2.830881980910194670e+03
-1.709447950374015193e+02 8.256341835151376927e+02 3.730115529679778774e+02
1.185953316582689695e+03 1.385689412348660881e+03 -1.993805718562136917e+02
1.461565105713028061e+03 1.491105958646436193e+03 -1.559021604952899906e+03
5.857435888365371284e+02 6.426481432049304203e+02 -2.876515280535859347e+03
1.525050572380348967e+03 7.543484582186067655e+02 -1.981303013109788935e+02
8.524716056854517774e+02 1.469422522845047752e+03 -2.750631602174890304e+03
1.456276634266418569e+03 4.923329838655777166e+02 -7.889178667039509492e+02
5.785077557518939102e+02 1.469362585380131577e+03 -2.750503576685961434e+03
-1.681290278074337721e+02 1.001053726236526245e+03 -5.088803294203394216e+02
-3.975514790448805797e+02 5.323613269637726262e+02 -2.922467689389573934e+03
2.615178815131288957e+03 1.482617933939257000e+03 -9.972442791847570334e+02
1.425065522886669896e+03 1.468019070033709340e+03 -8.629433921436288983e+02
4.138792920144276195e+02 1.407118434568291150e+03 -1.159055189443051859e+02
2.226663471557889352e+03 1.493254008637300558e+03 -1.619857301019727174e+03
2.058999755557532808e+03 1.388482801859471692e+03 -2.809117975095760357e+03
6.993934458737658133e+01 1.160313626631090983e+03 9.673222475855232005e+01
2.850535830004797617e+02 1.010180977471844585e+03 -9.867658173219824675e+02
-1.033579841332625335e+02 1.245377903893046323e+03 -4.982495739870718126e+02
1.582351874758926442e+03 1.435126810521810057e+03 -2.826884913418664837e+03
9.555808186980572145e+02 1.423272118861050330e+03 1.786110582268833014e+02
-6.126468474318985500e+02 1.437910865227253453e+03 -2.909541098521077856e+03
-1.665662980388410688e+02 1.394107166324914260e+03 -5.460896070952287573e+02
1.168592510589450512e+03 9.583503765559678413e+02 -2.852858002718051921e+03
3.891566705300424474e+03 -1.060782088215160002e+02 -3.893757034501861654e+02
-6.742961679998693398e+02 1.203065609898163075e+03 -2.933065373710589483e+03
1.936491367393334713e+02 1.424003823971779866e+03 -6.098380704724481802e+02
2.538272305685387437e+03 7.545440621516172541e+01 -9.604298153904251194e+02
6.971159361351578809e+01 1.441035507152222408e+03 -1.568018418732441660e+03
1.677605394591195363e+03 7.525836171696651036e+02 1.118022607950870224e+02
-3.894499903991163592e+01 1.418642329514982976e+03 -6.444512963964820074e+02
1.554319178714646569e+03 7.806968174235134938e+01 -2.698916561892360733e+02
6.804057889133564458e+02 1.227807604918990819e+03 8.666938527728689223e+02
7.522863452848271208e+02 1.454198054884363501e+03 -1.597442413937476658e+03
3.127195705031467696e+02 1.456716372904588752e+03 -2.035288609195949903e+03
5.050364857986301104e+01 1.426195246621255592e+03 -7.783144329309286604e+02
3.865204331507922234e+03 1.407900991502907345e+03 -7.155064320213491555e+02
-6.041783402718921252e+02 1.439228679224672760e+03 -2.247138717394919240e+03
7.234900897674460793e+02 6.058161523396722714e+02 -2.813068898556758541e+03
1.930416347887705797e+02 7.871200130007921416e+02 8.293028987718564622e+02
6.486144162180489730e+02 1.411615593757287115e+03 3.546530907963410755e+02
1.390000974080198830e+03 1.482683039641164669e+03 -2.432122891237845124e+03
1.553364998446348181e+03 1.444621897389580226e+03 7.785989767524906711e+02
5.948452720722443701e+02 1.145587358780815066e+03 -6.006685792817996798e+02
-2.852343993085375473e+01 1.304934820449398785e+03 -1.014838413976632410e+03
3.358075029650951819e+02 1.433619205981358618e+03 -7.734172235983201062e+02
2.423083323247702538e+03 1.466864048892461142e+03 3.849261784755258304e+02
-1.881452077808119157e+02 5.569274681924825927e+02 8.128647376735034413e+02
2.470672325900989563e+03 1.291745957952398385e+03 -9.626949836586409219e+02
1.645607462531416786e+03 6.588603236503890912e+02 5.803109864670727802e+02
2.611618641712346289e+03 1.488084444871732103e+03 -1.303063222852877061e+03
1.346504470643189507e+03 1.442590006597321462e+03 7.688573497128904819e+02
1.928125642428724859e+03 1.443655256249116519e+03 6.429981262163078100e+02
2.810537997715006895e+03 1.500559474505435901e+03 -1.439945523794663586e+03
3.247435552708751629e+02 9.785893163124663943e+02 -4.927385827123887339e+02
9.674253842645216537e+02 1.372937357815378846e+03 -1.675363961242139794e+02
1.663370104945520325e+02 1.199795694247467054e+03 -4.894963908610361614e+02
4.338825257350525533e+01 9.734414426957489468e+02 -5.024739647643262401e+02
-4.532898469331597653e+02 5.280058226816959177e+02 -2.919911946442539829e+03
9.911023530304732958e+02 8.030505857090743120e+02 -2.856561257201602530e+03
6.671883584353388414e+02 1.409812320442705868e+03 1.999723776066048231e+00
2.126394919646666494e+03 1.493655122406277314e+03 -2.344787431691216625e+03
9.139998186833078080e+02 1.345720016280761456e+03 -9.711381600563139500e+02
1.354268853594497841e+03 1.010757483359263915e+03 4.274842648659671340e+02
1.604159186391002095e+03 6.262274567847257458e+02 7.376643603174361488e+02
6.421156111670470636e+02 1.410323014087874071e+03 1.156280821360360278e+02
1.172720968511998080e+03 1.087153369721548188e+03 -5.335201649245543649e+02
2.327560521715552568e+03 7.436542329390454142e+02 -2.783124153572228806e+03
2.421581894241671762e+02 6.777744513090306100e+02 -2.889538263566418209e+03
2.502398977942625606e+03 -9.382131216460038559e+01 -2.586116840434951882e+02
1.612541549361872967e+03 1.491532543548557442e+03 -1.945735361806653600e+03
-7.082039511521852546e+02 6.816424487615258840e+02 -2.941282947013050943e+03
1.331105131371342395e+03 1.441008404901236645e+03 2.897502499571180579e+02
5.549341684524599714e+02 1.467023495799437569e+03 -1.974804550249085651e+03
2.026142995628653125e+03 1.492085587760717090e+03 -1.802893356591396014e+03
-1.503999406266633514e+02 1.450450981264373240e+03 -2.730715264595533881e+03
1.534664688821731488e+03 5.539597632949685249e+02 -2.169692638555679878e+02
1.464418143834984676e+03 1.485592078497901639e+03 -1.808572622840831627e+03
-6.905872471869929541e+02 1.431422800541087327e+03 -2.795962452797823516e+03
2.287102971547475931e+02 1.453549020511545450e+03 -2.019934759868475112e+03
-1.033975760590631126e+02 7.850615251635392724e+02 3.751985623111600034e+02
5.505915400592853075e+02 1.451055503309866253e+03 -1.543810367247832801e+03
1.566737727518210022e+03 6.812117591695403007e+02 -1.033512899095575676e+03
1.341761642680623027e+03 1.092486751350415489e+03 -9.498754847514546782e+02
-3.094069107592611658e+02 9.621053158958574159e+02 3.734308822177838465e+02
4.558121025236905552e+02 1.030127425970713830e+03 8.524679805626315101e+02
6.096973917526743207e+02 1.098632645120751249e+03 -5.633694982873923891e+02
8.996722706371610911e+02 1.329561573268730626e+03 8.789369091200774164e+02
2.877675727995438137e+01 1.369618964127897925e+03 -2.895534594274477968e+03
1.572533412070020859e+03 1.393527836213598675e+03 2.884703709411616046e+02
7.856695392428423474e+01 1.402920373484631455e+03 -1.237410059319348647e+02
6.046557212606080611e+02 1.455762596837360888e+03 -1.638099991976373985e+03
5.045954185766942146e+02 1.223765872415553076e+03 -4.817080078456256160e+02
3.068395803753657674e+03 1.198909300996622733e+03 -2.761932745120497202e+03
-8.859130577010887464e+01 9.341972475197975427e+02 -4.868750386701361776e+02
-1.926135798583745213e+02 1.420797274140916443e+03 -7.976230518787263009e+02
-5.082597557075675923e+02 8.996690611957894816e+02 8.109913768918172536e+02
3.290867013941851837e+03 1.482505720626412995e+03 -2.751798537498034420e+03
2.775993398338689985e+03 7.926033052391792353e+02 -2.778780360198029484e+03
4.736457104912369687e+01 1.461058517637206478e+03 -2.393555791109954498e+03
1.192080424688429503e+03 1.410329628971843704e+03 8.867260917867683929e+02
1.813894852621041991e+03 1.463038353630951406e+03 3.633384321596633981e+02
2.620419034495796495e+03 7.098974757873343151e+02 -2.773799955762888658e+03
1.219923025766442606e+03 7.344907766674964478e+02 -2.854250361223623713e+03
7.353840364504591207e+02 1.409203683846497370e+03 2.035250355556548811e+02
-1.698313284772764575e+02 1.305810179296175875e+03 -5.771794519029325556e+02
1.528548443206526372e+03 1.335800282390750908e+03 8.833919747817985808e+02
1.445153251958460032e+03 8.055514658276670161e+02 3.925704703907679232e+02
-3.515810695432889474e+02 5.628046014790261324e+02 8.091671412491887168e+02
2.532963239058065881e+02 1.199296220152161595e+03 -4.822073643885228194e+02
1.164650221673622355e+02 1.302665773706846721e+03 -4.848381027937335830e+02
1.592459783803433538e+03 1.486417617186359848e+03 -1.487125570465002966e+03
8.938676558290690082e+02 9.951024665946176810e+02 -9.662011711861475760e+02
1.546253430284054048e+03 3.925069076548726343e+02 -2.606139366374566180e+01
-1.747559950759806497e+02 1.432984170430931499e+03 -1.450408020692650780e+03
1.182821760784127036e+02 8.216803008308629614e+02 3.754063269562334426e+02
2.832711475668456842e+02 1.446241803953930230e+03 -1.789427565790291283e+03
1.398637648573153911e+03 1.439466164555593878e+03 1.095010886089121414e+02
5.195146946092243070e+02 1.425064233731535069e+03 -5.988471274438046521e+02
-5.155899711174683944e+02 1.444303606409506301e+03 -2.379060523435598952e+03
3.406898038916770020e+03 7.828615890598130136e+02 -2.736371488025708459e+03
-2.482417050972334778e+02 1.079597503304037673e+03 2.384181790734354536e+02
1.432177005647875376e+03 4.835687715197514081e+02 -7.484401566239414478e+02
2.353037415194577534e+03 5.149999974926035975e+02 -2.792647957414809753e+03
2.103887443589480426e+03 1.492129382575978525e+03 -1.644135073051759719e+03
6.988199611565596570e+01 1.457003562671301097e+03 -2.782122276195784252e+03
6.295925552094940940e+02 1.416945236041399312e+03 7.216516332802070792e+02
3.411127210290453604e+02 1.432375505567866185e+03 -6.912770165348144928e+02
9.303251372388692744e+02 5.317604485345198100e+02 -2.845963033041201015e+03
1.629684358998454854e+03 1.472270642447292403e+03 -9.063239747029272166e+02
7.333560559708321307e+02 1.438408073184314617e+03 -8.862711265498026023e+02
2.784552861685816652e+02 1.433200282118953055e+03 -1.338647345419613430e+03
2.275850312400871758e+02 9.407350350338745102e+02 8.323052591700106859e+02
2.498705531431134204e+03 1.500802818262399796e+03 -1.553955147677928835e+03
5.079593880338721874e+02 1.214674012571591447e+03 -9.826834613348640914e+02
4.029292219674027365e+03 2.417014566082231795e+03 2.405529277951592121e+03
5.665228891540330096e+02 9.195766101446915854e+02 8.509749142543514608e+02
4.739257090780665749e+01 6.603289208900102949e+02 8.254194121890400311e+02
-7.025415823753883160e+01 1.430115566508786969e+03 -9.759182698936108409e+02
1.645033791243938140e+03 7.872447868599820140e+02 -9.616850049425447651e+02
4.196117726147660392e+02 1.434530045564239117e+03 -8.208453406399698906e+02
4.765498259756997754e+02 1.431606149404106418e+03 -6.561335765813508942e+02
1.122698212075353695e+03 1.258928680764605360e+03 -2.705089724128447415e+01
5.583446196865311322e+02 7.321764838035410321e+02 -2.873512123618517307e+03
3.595066194670703226e+02 1.137706014044930726e+03 -4.850457961798606448e+02
7.422401357467683738e+02 1.410978622013351014e+03 -1.056619014265429541e+02
-2.694829807538599198e+01 6.657841393620687995e+02 -2.902651485870740089e+03
-6.570542840422103836e+01 1.453129280203364942e+03 -2.636515588480211591e+03
-4.344533530525336573e+02 1.431261811030881290e+03 -1.772096022852562328e+03
3.808933622172503419e+01 1.197180781386997069e+03 -1.006126298897327274e+03
9.162410562029799621e+01 1.454694860969440924e+03 -2.077349256247976882e+03
-3.596755157878947102e+02 1.442359327181766730e+03 -2.652978928693377838e+03
8.912681967085902670e+02 1.478292981593907598e+03 -2.263364442401506494e+03
1.234867481611065614e+03 8.861831004809305341e+02 8.893935833444902528e+02
1.075880213590988660e+03 1.480986878853707822e+03 -2.109666668374788514e+03
-2.576160543452123761e+02 1.443410809951390092e+03 -2.095576285034189368e+03
-2.029912357418404554e+02 6.686195375190616232e+02 3.673871390304916531e+02
5.183935342101094648e+02 1.318266159450212854e+03 -2.876252208216791132e+03
1.683548223282376512e+03 6.299859961699517044e+02 6.317262630175400773e+01
9.414012436162931863e+02 1.259619408102332272e+03 -2.859301943275567737e+03
7.816750277412683090e+01 1.048052803636788667e+03 3.141703318869710984e+02
1.569050512137888518e+03 1.485702423709416962e+03 -2.331519155479333676e+03
3.898256621630182508e+02 1.436744718066994210e+03 -9.719588964331885563e+02
1.347867578163669577e+03 1.306837352966621665e+03 8.727153050885885932e+02
2.287547435359110750e+03 1.483554127109418005e+03 -1.334696261303429765e+03
1.510498444945494839e+03 7.369958556909923573e+02 4.156153102336213578e+02
1.622717878520439626e+03 1.071293776041700994e+03 -6.324741120563498953e+01
1.033646871761068724e+03 9.953290588906229459e+02 8.714327076588397176e+02
4.678259275649958795e+02 1.280082418323887168e+03 -1.214565214344988135e+03
3.879028374906315548e+03 -7.584384175002196571e+01 -1.416777916495439058e+02
-7.331154056555283205e+01 1.112207625677934629e+03 1.932830882392697731e+02
-2.200380249163516169e+02 1.247178288000897737e+03 -1.022037452852047181e+03
1.380217458708507593e+03 1.488184969694852725e+03 -2.015369397400161461e+03
6.778849073701176167e+02 1.473460505157876469e+03 -2.574962563341602618e+03
1.665064516540862769e+03 1.490688905162917763e+03 -1.668716946697678850e+03
2.888637530638588942e+02 1.014127845616633294e+03 -2.884770840630911607e+03
1.253841981601137377e+03 7.351308796856201297e+02 8.794982503865248873e+02
6.800825871729423966e+01 9.362469662129433345e+02 -4.846588744299717746e+02
8.022171571452090575e+02 1.072614090499611166e+03 -7.185695401779964868e+02
1.083223195954006769e+03 1.051347598172023936e+03 -7.372935106754384833e+02
-1.717293610973135003e+02 9.660840505992293856e+02 -1.012444116865840670e+03
4.315412415935234662e+02 6.678469147964542572e+02 8.398807871228789281e+02
1.919534575718037559e+03 1.494179337588084309e+03 -1.487045055118433083e+03
2.325978532125889160e+03 1.492436608257386524e+03 -1.946877542482568970e+03
-2.956638243829379462e+02 1.422925869980890184e+03 -9.280891426488128673e+02
1.934502210859715660e+03 1.490513332033280676e+03 -2.437970722580252186e+03
7.057360307027882982e+02 1.099299700515421591e+03 -5.157870673338231882e+02
-7.306879561965206449e+01 1.251331980975131046e+03 -1.703680540256764289e+02
1.922293776075872756e+03 9.875231838174100858e+02 -2.806619888957187413e+03
4.016232224655895152e+03 1.264745903649371712e+03 -9.013668334121618955e+02
-5.517909547537788058e+02 1.437604193976483657e+03 -2.776924270647452886e+03
-1.341879603232653153e+02 1.421493150347598885e+03 -9.772918386931028181e+02
1.551632754702779039e+03 1.490045037768587463e+03 -2.093574452882044170e+03
1.293791475908215943e+03 1.176549107068772173e+03 -2.847463772528658865e+03
-6.513125537524006177e+02 1.294817353835682297e+03 -2.932594706825457251e+03
-2.982782598917552832e+02 1.413961683826701346e+03 -7.250888883587742839e+02
9.306503307096213575e+02 5.242746660140405766e+02 8.624983145498763406e+02
1.535226556428148797e+03 6.764326687274123060e+02 -1.980467784853244666e+02
1.338666075805299442e+03 1.379592932659048529e+03 -9.412426624432414428e+02
1.552998441837019982e+03 4.639447087160364731e+02 9.081269264219145043e+00
-9.847815581178258526e+01 9.658277712190144939e+02 -1.011162901728114775e+03
-2.391097789453724545e+02 7.771831872464060780e+02 3.524108651916378676e+02
1.123510506251889637e+03 1.434365224542397300e+03 3.023632121896625904e+02
1.453771623842674671e+03 1.446494988605578783e+03 7.431388771909455500e+02
2.022926808490045687e+03 6.179835911506634147e+02 -2.808279205508176346e+03
1.561257615969276685e+03 6.641818061790690990e+02 -3.394903420271075447e+02
1.083299373472271327e+03 1.481816338294735488e+03 -2.269038739222934055e+03
9.254923744733777085e+02 1.471793186844429783e+03 -1.896708682503723594e+03
1.071658432754379646e+02 9.487679701720901448e+02 3.649943500723895795e+02
2.157036306878673713e+03 1.499955663468124840e+03 -1.842568755896463699e+03
1.603058956274645880e+03 1.488241884679061513e+03 -2.433951862455508035e+03
-1.864239964982427296e+02 1.416766907674076720e+03 -6.052688529361909104e+02
-1.909106031368254435e+02 1.156110703786104295e+03 8.823696934146914828e+01
1.511461707225531427e+03 6.321463542515684821e+02 -9.031654761625302399e+02
8.150547045417388290e+02 1.475048630930559739e+03 -1.985449431604072743e+03
1.991172301118097039e+03 1.181566379885455262e+03 -2.805357859628032656e+03
-7.508297724161539008e+02 5.718345428416614595e+02 -2.938100736173789301e+03
3.173313787818997753e+03 9.633970575753551202e+02 -2.755678223888390676e+03
2.612186649960698560e+03 1.503196503096120068e+03 -2.066534819425363821e+03
1.425497714685811843e+03 1.021029331676379115e+03 -6.480736290042596011e+02
-4.170219432901776599e+02 1.214205911101329548e+03 -2.922868560700849230e+03
1.430865292351347080e+03 5.338631642165100857e+02 -7.156317163886706112e+02
6.217331771087734751e+02 1.315826660295506372e+03 -2.869679428608934359e+03
1.595837985720137112e+03 5.692196022627722414e+02 -2.835678496868855746e+03
2.830275603225380792e+02 1.425944638261695218e+03 -5.102569304284746750e+02
1.941061998166622061e+03 1.491896627258883655e+03 -2.334619887380780256e+03
8.968568340136485517e+01 1.418854930401402726e+03 -6.014208745652870221e+02
2.358852948704045957e+03 9.066235233477164002e+02 -2.787090307035081423e+03
9.406097007978962665e+02 8.484822319132570101e+02 8.670715600513631216e+02
-3.805866852128701794e+01 1.187615719602613581e+03 7.240782217788023445e+01
2.479177459790568719e+03 -7.121020771916926151e+01 4.329391753417426116e+02
-1.678693767405957260e+01 1.406420094828283027e+03 -5.200822747637367911e+02
1.324702114859571793e+03 9.580189433315745191e+02 8.827722479200451744e+02
7.038050207728165333e+02 1.340939955282738310e+03 8.780021015717318278e+02
1.453846498878343937e+03 6.086547361987518343e+02 -8.754476922037276836e+02
-2.142633494684839377e+02 1.106784050265999213e+03 -1.009151232414263404e+03
2.911489532040089671e+03 1.511053795641841134e+03 -2.786277353925569969e+03
1.553473637794312708e+03 1.173588813507186387e+03 2.694705453559472517e+02
1.477388853323839157e+03 5.362895848174925959e+02 -8.604168806911925458e+02
-1.789667556834663174e+02 9.215586536625892222e+02 -2.913635065466618016e+03
1.437798539086701112e+03 4.392329743020006845e+02 -8.173447098949886822e+02
6.094768673393689369e+02 5.667815092473628056e+02 8.387242254760369633e+02
1.016920985756476853e+03 1.100847833570158855e+03 -2.853499013455113982e+03
-2.428655403567277062e+02 1.397079162162559896e+03 -1.399915376623948760e+02
2.227368602227863903e+02 1.449236425192254728e+03 -1.887548634868881891e+03
1.436188645305941236e+03 9.552425962425149919e+02 2.429600156802041511e+02
1.268252361390941132e+03 1.428857489279717356e+03 7.858736385669094489e+02
2.494171558171321067e+03 1.498949715565426686e+03 -1.669267045107038030e+03
8.317087785723470006e+01 1.057319580260413659e+03 -9.964223583732925817e+02
1.460121562615308449e+03 4.428403320715231075e+02 -7.273188844776013866e+02
2.459932194279940177e+03 1.278137855420572123e+03 -3.870842983646866742e+02
1.858369785376771688e+02 1.460587504030223045e+03 -2.651815684447849890e+03
1.558951700843433628e+03 8.159702187754219267e+02 -3.206261381151964542e+02
-3.311706808450780954e+02 8.555890894128747277e+02 -2.918439224706068217e+03
1.333374167310934354e+03 1.023684125168166702e+03 7.274730948335818539e+02
1.107067386069134727e+03 1.270759280559784884e+03 -2.850645766028074831e+03
1.377876944707809344e+02 1.042845568767615987e+03 -2.891771228084456652e+03
-1.160085707329067191e+02 1.342738616751477593e+03 -5.012043789476201709e+02
1.164531985979936508e+03 8.679127185008605920e+02 8.815315706787728232e+02
3.769709647156996652e+02 6.088176842762118213e+02 -2.882510569861009571e+03
2.521063011398726303e+03 -1.253742287582463177e+02 -6.131509246403024918e+02
5.546906136792060806e+02 1.358319053984679158e+03 8.657389823042883563e+02
2.186715298841013464e+03 1.496984954619404562e+03 -1.524368605200732418e+03
1.188805861486846879e+03 1.480820322135074548e+03 -2.413015205412760679e+03
1.275462725974878140e+03 9.714038682927888431e+02 -2.852322252291956374e+03
-4.326500910982057349e+02 6.616771779584586284e+02 8.078252215761051502e+02
9.908578463708263371e+02 1.050186018637945836e+03 -4.741394237377023160e+02
1.941540644113538065e+03 1.488718527390391728e+03 -2.680007407677083393e+03
4.673708439778704360e+02 1.400760427397898638e+03 -4.845753763215050185e+02
5.948590052524544944e+02 9.669309395329696599e+02 8.550345209225311010e+02
-1.132383409471603954e+02 1.448411567309453403e+03 -2.103028728730088005e+03
1.637530630064678689e+03 8.379046139773265622e+02 -1.045211713287708790e+03
-2.881547294183678787e+02 1.306392325322081888e+03 -2.910176753433429894e+03
1.200937096212532197e+03 1.289047061859982477e+03 8.838587772627438426e+02
-2.199069813980749757e+02 1.346466439671873104e+03 -2.484986739697864664e+02
5.116461017480178270e+02 7.593003772021343138e+02 8.502994566551419666e+02
7.155524167953717551e+02 1.443790976219438107e+03 -1.341874419452093207e+03
2.329716164985620708e+02 5.663253170187238084e+02 8.250046079744183771e+02
1.547996091025421265e+03 4.446942184909183311e+02 -2.547433836541584355e+02
1.218158549347523149e+03 1.481359795692846092e+03 -1.937821558759683285e+03
1.512204538558761442e+03 6.294931630497358128e+02 -8.509510356262967434e+01
1.460024528708778689e+03 4.285979191730705224e+02 -9.105926886808410927e+02
1.029332746720083833e+03 1.445116602923669689e+03 -8.762138894716911182e+02
6.918900045871172324e+02 1.363283900631451615e+03 -1.666270583518753483e+02
1.131948536836982385e+03 1.471583927732998745e+03 -1.610292101242976969e+03
3.916266005212846721e+03 8.289175742408642691e+02 -2.719501016935468215e+03
1.321968037747291874e+03 1.090964346350311871e+03 -5.802824701256745357e+02
5.984528905968195431e+02 1.204295541479732492e+03 -7.289260254250916660e+02
2.632208965928833095e+03 1.484341726045194264e+03 -3.522270468314932259e+02
3.828713356356262011e+03 1.372906569205749975e+03 -2.833283851562077871e+02
5.886041497951579231e+02 1.264807273425270296e+03 -4.845484500767660165e+02
1.890277779805351656e+03 7.919753259613321461e+02 -2.805248810816039622e+03
3.883526464013792065e+03 -2.195948809464498481e+02 -2.752415782185535136e+03
1.478945968207078749e+03 5.400069540815293294e+02 8.798613241647622090e+02
1.478171523351091764e+03 1.484420703965318808e+03 -2.542917105244609047e+03
3.005570811460702316e+02 1.309304046059112807e+03 -2.891373195069416397e+03
1.661620727454582720e+03 8.227821036524414922e+02 -9.229401212775346721e+02
1.686065768451438998e+03 1.493034873162493568e+03 -1.861695181921835683e+03
-1.535634736985546169e+02 1.052228355846415297e+03 -1.007343788186226675e+03
2.246983784822087955e+02 1.423487228711076341e+03 -5.607862639297139822e+02
-3.647234097694627053e+01 1.037841516141229931e+03 3.552523213105705508e+02
3.454956667861306414e+02 1.031862197645637934e+03 -9.849816494661429260e+02
1.322843854844821180e+03 1.472407632922621815e+03 -1.332857278382718050e+03
1.779787768243677647e+03 1.492144094833515055e+03 -2.199559719117918576e+03
-9.283230559665537385e+01 1.008066297540734695e+03 -5.043541734898560662e+02
2.770022639765956683e+03 1.485140543286057436e+03 -9.148938181825041056e+02
1.448622457447283068e+03 5.719330753053270655e+02 -8.328959570086465192e+02
1.542821295314729014e+03 5.879641494161137416e+02 5.680057357775258424e+02
1.031262885351867908e+03 8.856598022978994322e+02 -2.860686150245359386e+03
6.228558996244687478e+02 1.462715876198617480e+03 -1.749426694424276548e+03
3.806166179285094131e+02 1.313438072014243517e+03 -4.817313844336555917e+02
-5.851715544507937921e+02 5.193593037916193680e+02 -2.932173697784048272e+03
1.411840982164874276e+03 5.311781156660704255e+02 -3.953735487151807320e+02
1.561098052552817762e+03 1.193735928098690465e+03 8.480549382069236799e+02
8.078681113233596989e+02 1.458315732417438539e+03 -1.622551779791011995e+03
2.083294683994169645e+03 1.486736548676717121e+03 -1.320683283496018248e+03
3.859754356458467555e+03 1.416692321673240940e+03 -1.060838450913036922e+03
1.310338764135980909e+03 1.329410379487464979e+03 -2.841940857626256729e+03
-2.010014905709772393e+01 1.413171253045830099e+03 -1.332764354815872139e+03
1.509717046594000294e+03 4.559515703922580769e+02 -1.075570793910000475e+03
3.848513853926563570e+03 1.331247713272324518e+03 -5.160362617395444431e+02
8.901012308628003211e+02 1.414942290209005932e+03 3.547820912043766839e+01
1.489016866958588253e+03 8.822693068403914367e+02 1.014113511414798268e+02
2.889683800630712085e+03 1.267870506500260944e+03 -2.777689844292817270e+03
2.492135794052321671e+03 -1.237456063383592664e+02 1.892986377370407354e+02
2.837581040356552649e+02 1.271455789769290050e+03 -9.978408237439323329e+02
8.470999360747244964e+02 1.423727866520514453e+03 5.864006942817268282e+02
3.790223508981142686e+02 1.216193751214594613e+03 -9.864419442746890354e+02
1.905098535202987932e+03 1.481972478517410309e+03 -1.289003290248267376e+03
1.498032291635272486e+02 1.432783165374244845e+03 -8.684674211707072118e+02
8.068955150441547630e+02 1.420670740439115889e+03 4.139241260911376230e+02
1.391542752694673936e+03 5.499477278871574981e+02 -6.373861460064792936e+02
2.943555368212619214e+03 9.731495101910172707e+02 -2.761643095901920333e+03
4.144948536205130267e+02 1.101305149164081513e+03 -4.851756441962337476e+02
1.422298438841043435e+03 6.098682351852712600e+02 -7.663057654258545881e+02
5.497495122619787935e+02 1.362091677440134390e+03 -1.555647712631991908e+02
2.292475216059393460e+03 1.012145366629564705e+03 -2.782759490668143371e+03
1.715525623140738389e+02 1.332796594056439517e+03 -2.889154668165117528e+03
1.564211672842731105e+03 1.387274414013291562e+03 6.565376097134899283e+02
1.944918313611971712e+02 1.086259485804221413e+03 -4.871188593668555882e+02
8.751635463219695339e+02 6.459791872086207150e+02 8.726634405157842593e+02
-2.427332942539146643e+02 1.030984409325240449e+03 3.518090228955220482e+02
5.417718646748243145e+02 1.115053070253622082e+03 -9.872009439045685895e+02
-3.168804055734548797e+02 1.437052414959953921e+03 -1.891112442742472012e+03
5.144196773380576815e+01 1.429436742913718263e+03 -8.845780031319882255e+02
3.238847288411321870e+02 1.007929771341120500e+03 -4.905978253288893711e+02
1.086195759420955255e+03 1.430964703720070247e+03 5.539369785873777801e+02
3.890770044158084602e+03 -7.477209213684818678e+01 -5.934827319812784481e+02
1.445511687978685586e+03 9.096173310394825648e+02 4.708161826591176577e+02
-2.643070800228897497e+02 5.478970460300311061e+02 8.108839587480956652e+02
1.891830737191035041e+02 7.946197276281600352e+02 -2.891001508154445219e+03
1.474558186495320797e+03 7.570359458947023086e+02 8.766654007482154611e+02
1.545943455758285836e+03 3.725885460793169273e+02 1.648505057250781647e+02
1.493403790984442367e+03 6.493688759672561446e+02 -5.663601265812601468e+02
1.530153039458535659e+03 8.171551994304818436e+02 -2.835121552165296180e+03
-3.273530753295221984e+02 7.514832270167626120e+02 3.658296003599282358e+02
9.762017589655908978e+01 1.443409800293465651e+03 -1.655108977784100944e+03
-2.035520098407561136e+02 1.124102000649508682e+03 -5.074582387517048119e+02
1.325998266330272145e+03 1.482921618083942576e+03 -2.298488367097243099e+03
1.726196903684237611e+02 1.363765325645090343e+03 -1.000736669787009987e+03
1.687152175868400263e+03 6.594504551579066174e+02 2.888699223511493983e+02
1.621730668645432161e+03 6.903729645356402216e+02 -8.912022510574934131e+02
1.946846936202925917e+02 1.430869825979214511e+03 -7.949477662796064124e+02
1.232687315415505509e+02 6.540926746003772223e+02 8.237952492753229308e+02
1.557652627483073957e+03 -2.043168066094742699e+02 -2.455392580031790999e+02
1.583004857684363515e+03 6.671351675532312129e+02 -5.896255282288896069e+02
1.511936666598317515e+03 7.439085143461797998e+02 2.582419328473656606e+02
2.282334252626174020e+01 1.396932479330670503e+03 -1.006234934937348271e+03
-1.984687756982466453e+02 1.436774952055358881e+03 -1.761696185968197369e+03
8.864284398011477606e+01 9.886434449053958815e+02 -9.933686786216017026e+02
-1.435617900482281470e+02 1.443995173768545328e+03 -1.959478248128158384e+03
3.089221832733562678e+02 1.346781446690921939e+03 -1.000436664837152421e+03
3.648908357644477292e+03 1.500189003414785475e+03 -2.733055769904153294e+03
6.590225896373252681e+02 1.394449065733221005e+03 -9.525900395458594403e+02
2.354873754599499989e+03 1.492786260033711642e+03 -1.533915220438056167e+03
2.717704052542945192e+03 1.134459172086333183e+03 -2.768611537677878459e+03
1.359072485907932787e+03 5.368392081704450902e+02 -5.714194637760660953e+02
1.969333816961874845e+03 1.478554955520845851e+03 -8.684933387131648033e+02
9.609203506608912448e+02 1.059634346371747370e+03 -9.643777098675102479e+02
1.006844627232231346e+03 1.126812484714160973e+03 -9.696536049844315812e+02
8.694567583317957542e+02 8.107593341942940697e+02 -2.790113414043639750e+03
1.152192191025053035e+03 9.125124652632047173e+02 8.749587250150070759e+02
7.669756055816610569e+02 1.012356371570865917e+03 -6.718744457919015076e+02
4.358722376598823303e+02 1.462711731387184500e+03 -2.118363703537770107e+03
3.822335876941896913e+03 1.360892673783428563e+03 -7.688581476844478857e+01
-3.936278914424975710e+02 1.438675504203538821e+03 -1.983330266300960375e+03
4.676574874410857774e+02 9.374509462808841818e+02 -2.880270202817599966e+03
1.453493511420587311e+03 5.104910351690759853e+02 -9.245109410495176689e+02
4.071751720356651276e+02 1.361116145573832455e+03 -2.116083059472235846e+02
1.204418849418830632e+03 1.019923639176567576e+03 -6.602665121482100403e+02
3.705745595632120057e+02 1.434791154168269031e+03 -8.245287897310502103e+02
2.595732516506860179e+02 6.883864014280832180e+02 8.307361676020011600e+02
1.773582288526137347e+02 1.354333743934382937e+03 -1.942491066332522678e+02
1.035026828023165081e+03 6.491648983165664504e+02 8.732833328247700138e+02
-7.827353068148062221e+02 7.292832062213311701e+02 -2.932338746001842992e+03
1.830880169747509626e+03 5.049628457396341901e+02 3.103434156679865055e+02
1.856199924115031990e+03 1.379099330809772709e+03 -1.395227618416131463e+02
1.733321852932776437e+03 1.409609190758729255e+03 2.111650718889329710e+02
1.227831074546682657e+03 1.455843400228305654e+03 -9.496332228969222342e+02
2.389377137784366312e+02 9.470399824802235571e+02 -4.982379302289062366e+02
2.703398231820175624e+03 1.366549769565827773e+03 -2.790876136315950589e+03
1.195819368336376556e+03 1.328502073230729138e+03 -9.692769231021222822e+02
1.408024540841098315e+03 5.554567965245159940e+02 -6.872788435722732174e+02
7.101481795490419699e+02 1.412675834309932270e+03 2.942025937052383142e+02
1.341938990342900752e+03 5.963945601938439722e+02 -4.757804585384039342e+02
5.316647071527554544e+02 1.101500700486157257e+03 -2.872544044331756140e+03
5.577863230656889755e+02 1.164529291048754658e+03 -9.877745308365803112e+02
1.930278026107580729e+02 1.426579125524843676e+03 -7.316917578347852213e+02
2.767231883424165062e+01 1.045683658154832756e+03 -2.903491295382607859e+03
2.623423396844657873e+03 1.495782032653505212e+03 -1.685109081918412357e+03
5.891058617431563107e+02 1.213281248807189968e+03 -6.611808970550995355e+02
1.950527449811554789e+03 8.763600190129523071e+02 -2.806776027214029455e+03
7.605754630738706510e+02 1.026885988804125191e+03 -2.862753751463888420e+03
-4.613863461576193004e+02 1.180101760519416530e+03 8.161672654786034400e+02
3.535813717480366904e+03 1.303845786011924702e+03 -2.775081355925863136e+03
1.256983817454000416e+02 1.416188383506180571e+03 -5.012503516963680568e+02
-5.727824208197539519e+02 7.029353131431093971e+02 -2.932630905052360049e+03
3.071023224144557844e+02 1.254175171259394119e+03 8.273288244430730174e+02
2.540783316518331048e+03 1.505114742164728341e+03 -2.258711975724693730e+03
3.345825908899391834e+03 7.693750947720573095e+02 -2.757884233894300451e+03
7.631126440563621145e+02 1.465821054609711609e+03 -1.834161937775553270e+03
1.492717877932383999e+03 1.453933679847370968e+03 1.457399849309317688e+02
2.507875699625671132e+03 1.138909342973058756e+03 -2.783386155929882534e+03
-5.585763378158114847e+02 9.740955098956126221e+02 8.122023447121330264e+02
1.399773407448474245e+02 1.446857591349493759e+03 -1.908485174802563506e+03
1.621071883281465716e+03 7.117806621734969212e+02 -9.931624445562422352e+02
-5.420623220253646650e+02 1.073952748843440077e+03 -2.925019716044308552e+03
1.076040051923645478e+03 1.474537021508410817e+03 -1.702165395785434612e+03
5.624625373482986106e+02 1.433188565473274139e+03 -8.279941908624962252e+02
1.157870870784321369e+02 1.429350415905799309e+03 -7.488160826059462352e+02
2.158082731337128735e+02 1.422878218591807126e+03 -6.727580651138157464e+02
-1.181690555113896153e+02 1.441550027128663032e+03 -1.863881123010278770e+03
